ply
format ascii 1.0
element vertex 1290
property float x
property float y
property float z
property uchar red
property uchar green
property uchar blue
end_header
0.076859 -0.956206 -15.718165 3 0 0
0.068433 -0.955749 -15.710647 3 0 0
0.064238 -0.955749 -15.710647 3 0 0
0.060044 -0.955749 -15.710647 3 0 0
0.055850 -0.955749 -15.710647 3 0 0
0.051647 -0.955597 -15.708141 3 0 0
0.047453 -0.955597 -15.708141 3 0 0
0.043252 -0.955444 -15.705637 3 0 0
0.039047 -0.955140 -15.700631 3 0 0
0.034849 -0.954988 -15.698130 3 0 0
0.030663 -0.955140 -15.700631 3 0 0
0.026543 -0.957734 -15.743282 3 0 0
0.022340 -0.957734 -15.743282 3 0 0
0.018134 -0.957581 -15.740767 3 0 0
0.013927 -0.957276 -15.735739 3 0 0
0.009723 -0.956970 -15.730714 4 0 0
0.005521 -0.956664 -15.725693 4 0 0
0.001322 -0.956206 -15.718165 4 0 0
-0.002874 -0.956206 -15.718165 4 0 0
-0.007071 -0.956206 -15.718165 4 0 0
-0.011273 -0.956664 -15.725693 4 0 0
-0.015478 -0.957123 -15.733227 4 0 0
-0.019695 -0.957887 -15.745799 4 0 0
-0.036498 -0.957581 -15.740767 4 0 0
-0.040642 -0.956206 -15.718165 4 0 0
-0.044817 -0.955749 -15.710647 4 0 0
-0.049012 -0.955749 -15.710647 4 0 0
-0.053215 -0.955901 -15.713152 4 0 0
-0.057410 -0.955901 -15.713152 4 0 0
-0.061605 -0.955901 -15.713152 5 0 0
-0.065779 -0.955597 -15.708141 6 0 0
-0.069973 -0.955597 -15.708141 6 0 0
-0.074167 -0.955597 -15.708141 6 0 0
-0.078336 -0.955292 -15.703135 6 0 0
-0.082528 -0.955292 -15.703135 6 0 0
-0.086707 -0.955140 -15.700631 6 0 0
-0.090913 -0.955292 -15.703135 7 0 0
-0.095273 -0.956970 -15.730714 7 0 0
-0.099472 -0.956970 -15.730714 8 0 0
-0.103540 -0.955749 -15.710647 9 0 0
-0.107734 -0.955749 -15.710647 9 0 0
-0.112000 -0.956359 -15.720674 10 2 0
-0.116272 -0.956970 -15.730714 12 5 0
-0.120452 -0.956817 -15.728203 20 13 0
-0.124492 -0.955597 -15.708141 34 27 0
-0.128461 -0.953924 -15.680640 50 44 0
-0.132394 -0.952105 -15.650748 59 53 0
-0.136400 -0.950897 -15.630884 72 66 0
-0.140573 -0.950897 -15.630884 88 81 0
-0.736477 -1.463257 -24.053091 62 68 0
-0.741270 -1.460049 -24.000357 63 69 0
-0.745680 -1.456147 -23.936216 66 71 0
-0.750247 -1.452618 -23.878202 67 73 0
-0.756439 -1.452266 -23.872417 68 74 0
-0.776956 -1.408579 -23.154280 77 83 0
-0.832803 -1.463257 -24.053091 67 75 0
-0.839225 -1.463257 -24.053091 66 74 0
-0.842766 -1.458273 -23.971159 68 76 0
-0.849166 -1.458273 -23.971159 73 81 0
-0.858490 -1.463257 -24.053091 78 83 0
-0.864912 -1.463257 -24.053091 80 84 0
-0.871334 -1.463257 -24.053091 78 82 0
-0.877755 -1.463257 -24.053091 84 90 0
-0.884177 -1.463257 -24.053091 82 89 0
-0.890599 -1.463257 -24.053091 73 80 0
-0.897021 -1.463257 -24.053091 73 79 0
-0.918894 -1.248646 -20.525305 58 65 0
-0.923605 -1.247607 -20.508215 59 65 0
-0.963378 -1.221668 -20.081831 48 55 0
0.510087 -0.837946 -13.714012 1 0 0
0.515686 -0.853268 -13.964771 1 0 0
0.365807 -0.818242 -13.391527 0 0 0
0.361691 -0.817020 -13.371534 0 0 0
0.358121 -0.817020 -13.371534 0 0 0
0.258461 -0.964712 -15.788696 0 0 0
0.253474 -0.961784 -15.740767 0 0 0
0.248914 -0.960403 -15.718165 1 0 0
0.244405 -0.959179 -15.698130 1 0 0
0.239985 -0.958263 -15.683136 1 0 0
0.235760 -0.958110 -15.680640 1 0 0
0.231795 -0.959026 -15.695629 1 0 0
0.223628 -0.959943 -15.710647 2 0 0
0.219434 -0.959943 -15.710647 3 0 0
0.215239 -0.959943 -15.710647 3 0 0
0.211045 -0.959943 -15.710647 3 0 0
0.195138 -0.964249 -15.781109 3 0 0
0.190589 -0.962553 -15.753352 3 0 0
0.186264 -0.961938 -15.743282 3 0 0
0.181886 -0.961016 -15.728203 3 0 0
0.177461 -0.959790 -15.708141 3 0 0
0.173156 -0.959179 -15.698130 3 0 0
0.169019 -0.959484 -15.703135 3 0 0
0.165195 -0.961630 -15.738253 3 0 0
0.161045 -0.961938 -15.743282 3 0 0
0.156817 -0.961784 -15.740767 3 0 0
0.152517 -0.961170 -15.730714 3 0 0
0.148175 -0.960250 -15.715658 3 0 0
0.143864 -0.959484 -15.703135 3 0 0
0.139650 -0.959332 -15.700631 3 0 0
0.135436 -0.959179 -15.698130 3 0 0
0.131245 -0.959179 -15.698130 3 0 0
0.127054 -0.959179 -15.698130 3 0 0
0.110678 -0.962553 -15.753352 3 0 0
0.106370 -0.961630 -15.738253 3 0 0
0.102021 -0.960250 -15.715658 3 0 0
0.097794 -0.959943 -15.710647 3 0 0
0.093600 -0.959943 -15.710647 3 0 0
0.089391 -0.959790 -15.708141 3 0 0
0.085197 -0.959790 -15.708141 3 0 0
0.081003 -0.959790 -15.708141 3 0 0
0.076736 -0.958873 -15.693129 3 0 0
0.072593 -0.959484 -15.703135 3 0 0
0.068433 -0.959943 -15.710647 3 0 0
0.064238 -0.959943 -15.710647 3 0 0
0.060044 -0.959943 -15.710647 3 0 0
0.055841 -0.959790 -15.708141 3 0 0
0.051647 -0.959790 -15.708141 3 0 0
0.047446 -0.959637 -15.705637 3 0 0
0.043252 -0.959637 -15.705637 3 0 0
0.039041 -0.959179 -15.698130 3 0 0
0.034844 -0.959026 -15.695629 3 0 0
0.030653 -0.959026 -15.695629 3 0 0
0.026543 -0.961938 -15.743282 3 0 0
0.022340 -0.961938 -15.743282 3 0 0
0.018137 -0.961938 -15.743282 3 0 0
0.013932 -0.961784 -15.740767 3 0 0
0.009726 -0.961477 -15.735739 4 0 0
0.005523 -0.961170 -15.730714 4 0 0
0.001322 -0.960556 -15.720674 4 0 0
-0.002874 -0.960403 -15.718165 4 0 0
-0.007067 -0.959943 -15.710647 4 0 0
-0.011267 -0.960403 -15.718165 4 0 0
-0.015478 -0.961323 -15.733227 4 0 0
-0.019695 -0.962091 -15.745799 4 0 0
-0.036498 -0.961784 -15.740767 4 0 0
-0.040629 -0.960097 -15.713152 4 0 0
-0.044817 -0.959943 -15.710647 4 0 0
-0.049012 -0.959943 -15.710647 4 0 0
-0.053215 -0.960097 -15.713152 4 0 0
-0.057410 -0.960097 -15.713152 4 0 0
-0.061595 -0.959943 -15.710647 4 0 0
-0.065779 -0.959790 -15.708141 5 0 0
-0.069973 -0.959790 -15.708141 5 0 0
-0.074155 -0.959637 -15.705637 5 0 0
-0.078336 -0.959484 -15.703135 5 0 0
-0.082528 -0.959484 -15.703135 5 0 0
-0.086721 -0.959484 -15.703135 5 0 0
-0.090942 -0.959790 -15.708141 6 0 0
-0.095166 -0.960097 -15.713152 6 0 0
-0.099361 -0.960097 -15.713152 8 0 0
-0.103507 -0.959637 -15.705637 11 0 0
-0.107700 -0.959637 -15.705637 11 0 0
-0.111929 -0.959943 -15.710647 12 1 0
-0.116290 -0.961323 -15.733227 14 3 0
-0.120491 -0.961323 -15.733227 24 14 0
-0.124691 -0.961323 -15.733227 36 26 0
-0.128563 -0.958873 -15.693129 49 41 0
-0.132479 -0.956892 -15.660700 56 48 0
-0.136400 -0.955070 -15.630884 68 61 0
-0.140573 -0.955070 -15.630884 82 76 0
-0.736477 -1.469679 -24.053091 60 65 0
-0.741270 -1.466457 -24.000357 63 68 0
-0.745680 -1.462538 -23.936216 65 70 0
-0.750066 -1.458640 -23.872417 61 66 0
-0.756073 -1.457933 -23.860853 62 67 0
-0.762443 -1.457933 -23.860853 65 70 0
-0.772044 -1.417092 -23.192434 69 74 0
-0.776591 -1.414096 -23.143402 71 77 0
-0.782402 -1.413432 -23.132534 72 77 0
-0.832803 -1.469679 -24.053091 67 73 0
-0.839225 -1.469679 -24.053091 65 71 0
-0.843176 -1.465386 -23.982830 66 72 0
-0.849579 -1.465386 -23.982830 73 78 0
-0.858490 -1.469679 -24.053091 76 81 0
-0.864912 -1.469679 -24.053091 77 82 0
-0.871334 -1.469679 -24.053091 78 83 0
-0.877755 -1.469679 -24.053091 78 83 0
-0.884177 -1.469679 -24.053091 76 81 0
-0.890599 -1.469679 -24.053091 73 78 0
-0.918129 -1.253082 -20.508215 60 66 0
-0.923412 -1.252821 -20.503946 61 66 0
-0.928887 -1.252821 -20.503946 59 64 0
-0.935139 -1.253865 -20.521030 56 61 0
-0.940618 -1.253865 -20.521030 56 61 0
-0.946097 -1.253865 -20.521030 57 61 0
0.510087 -0.841608 -13.714012 1 0 0
0.506426 -0.841608 -13.714012 1 0 0
0.365906 -0.822041 -13.395168 0 0 0
0.361789 -0.820813 -13.375165 0 0 0
0.358218 -0.820813 -13.375165 0 0 0
0.248954 -0.964753 -15.720674 1 0 0
0.244172 -0.962450 -15.683136 1 0 0
0.239756 -0.961531 -15.668172 1 0 0
0.235573 -0.961531 -15.668172 1 0 0
0.231390 -0.961531 -15.668172 1 0 0
0.215239 -0.964138 -15.710647 3 0 0
0.195076 -0.968152 -15.776055 3 0 0
0.190589 -0.966759 -15.753352 3 0 0
0.186204 -0.965832 -15.738253 3 0 0
0.181712 -0.964292 -15.713152 3 0 0
0.177348 -0.963370 -15.698130 3 0 0
0.173129 -0.963216 -15.695629 3 0 0
0.168965 -0.963370 -15.698130 3 0 0
0.165143 -0.965524 -15.733227 3 0 0
0.161045 -0.966141 -15.743282 3 0 0
0.156817 -0.965986 -15.740767 3 0 0
0.152614 -0.965986 -15.740767 3 0 0
0.148199 -0.964599 -15.718165 3 0 0
0.143864 -0.963677 -15.703135 3 0 0
0.139627 -0.963370 -15.698130 3 0 0
0.135393 -0.963063 -15.693129 3 0 0
0.131203 -0.963063 -15.693129 3 0 0
0.127054 -0.963370 -15.698130 3 0 0
0.115031 -0.967997 -15.773529 3 0 0
0.110678 -0.966759 -15.753352 3 0 0
0.106370 -0.965832 -15.738253 3 0 0
0.102005 -0.964292 -15.713152 3 0 0
0.097779 -0.963984 -15.708141 3 0 0
0.093585 -0.963984 -15.708141 3 0 0
0.089391 -0.963984 -15.708141 3 0 0
0.085197 -0.963984 -15.708141 3 0 0
0.080926 -0.963063 -15.693129 3 0 0
0.076687 -0.962450 -15.683136 3 0 0
0.072489 -0.962296 -15.680640 3 0 0
0.068281 -0.961990 -15.675651 3 0 0
0.064218 -0.963831 -15.705637 3 0 0
0.060025 -0.963831 -15.705637 3 0 0
0.055805 -0.963370 -15.698130 3 0 0
0.051614 -0.963370 -15.698130 3 0 0
0.047438 -0.963677 -15.703135 2 0 0
0.043232 -0.963370 -15.698130 1 0 0
0.039034 -0.963216 -15.695629 1 0 0
0.034833 -0.962910 -15.690630 3 0 0
0.030644 -0.962910 -15.690630 3 0 0
0.009729 -0.965986 -15.740767 3 0 0
0.005525 -0.965678 -15.735739 3 0 0
0.001323 -0.965369 -15.730714 3 0 0
-0.002874 -0.964599 -15.718165 4 0 0
-0.007066 -0.963984 -15.708141 4 0 0
-0.011260 -0.963984 -15.708141 4 0 0
-0.040655 -0.964907 -15.723183 4 0 0
-0.044832 -0.964445 -15.715658 4 0 0
-0.049020 -0.964292 -15.713152 4 0 0
-0.053215 -0.964292 -15.713152 4 0 0
-0.057401 -0.964138 -15.710647 4 0 0
-0.061595 -0.964138 -15.710647 4 0 0
-0.065779 -0.963984 -15.708141 5 0 0
-0.069962 -0.963831 -15.705637 5 0 0
-0.074143 -0.963677 -15.703135 5 0 0
-0.078336 -0.963677 -15.703135 5 0 0
-0.082554 -0.963984 -15.708141 5 0 0
-0.086748 -0.963984 -15.708141 5 0 0
-0.090942 -0.963984 -15.708141 6 0 0
-0.095136 -0.963984 -15.708141 6 0 0
-0.099266 -0.963370 -15.698130 8 0 0
-0.103424 -0.963063 -15.693129 11 0 0
-0.107649 -0.963370 -15.698130 11 0 0
-0.111857 -0.963523 -15.700631 12 1 0
-0.116086 -0.963831 -15.705637 15 2 0
-0.120356 -0.964445 -15.715658 26 13 0
-0.124492 -0.963984 -15.708141 37 25 0
-0.128359 -0.961531 -15.668172 49 40 0
-0.132479 -0.961073 -15.660700 59 51 0
-0.136465 -0.959700 -15.638328 71 63 0
-0.140640 -0.959700 -15.638328 82 75 0
-0.634626 -1.420608 -23.148840 62 66 0
-0.640806 -1.420608 -23.148840 64 68 0
-0.736477 -1.476101 -24.053091 60 64 0
-0.742899 -1.476101 -24.053091 63 68 0
-0.745861 -1.469285 -23.942032 65 70 0
-0.749884 -1.464658 -23.866634 57 62 0
-0.755341 -1.462886 -23.837761 57 63 0
-0.761337 -1.462179 -23.826231 62 67 0
-0.769475 -1.430016 -23.302143 66 71 0
-0.772044 -1.423284 -23.192434 67 71 0
-0.776956 -1.420942 -23.154280 68 72 0
-0.782219 -1.419274 -23.127104 70 75 0
-0.832803 -1.476101 -24.053091 67 71 0
-0.836977 -1.472147 -23.988668 65 69 0
-0.843176 -1.471789 -23.982830 66 70 0
-0.852068 -1.476101 -24.053091 71 74 0
-0.858490 -1.476101 -24.053091 74 78 0
-0.864912 -1.476101 -24.053091 76 79 0
-0.871334 -1.476101 -24.053091 77 80 0
-0.877755 -1.476101 -24.053091 74 77 0
-0.884177 -1.476101 -24.053091 73 76 0
-0.917938 -1.258295 -20.503946 64 68 0
-0.923220 -1.258034 -20.499680 63 67 0
-0.928887 -1.258295 -20.503946 59 64 0
-0.934750 -1.258819 -20.512484 54 59 0
-0.940226 -1.258819 -20.512484 54 58 0
-0.945703 -1.258819 -20.512484 56 59 0
0.510087 -0.845269 -13.714012 1 0 0
0.506426 -0.845269 -13.714012 1 0 0
0.365906 -0.825617 -13.395168 0 0 0
0.361789 -0.824384 -13.375165 0 0 0
0.358218 -0.824384 -13.375165 0 0 0
0.248954 -0.968950 -15.720674 2 0 0
0.243939 -0.965714 -15.668172 2 0 0
0.239642 -0.965254 -15.660700 2 0 0
0.235573 -0.965714 -15.668172 3 0 0
0.199287 -0.972364 -15.776055 4 0 0
0.194826 -0.971120 -15.755871 4 0 0
0.190406 -0.970034 -15.738253 4 0 0
0.185907 -0.968487 -15.713152 4 0 0
0.181568 -0.967715 -15.700631 4 0 0
0.177348 -0.967561 -15.698130 4 0 0
0.173156 -0.967561 -15.698130 4 0 0
0.168965 -0.967561 -15.698130 4 0 0
0.164879 -0.968178 -15.708141 4 0 0
0.148246 -0.969105 -15.723183 4 0 0
0.143887 -0.968024 -15.705637 4 0 0
0.139650 -0.967715 -15.700631 4 0 0
0.135415 -0.967407 -15.695629 3 0 0
0.131245 -0.967561 -15.698130 3 0 0
0.127054 -0.967561 -15.698130 3 0 0
0.115031 -0.972208 -15.773529 3 0 0
0.110642 -0.970654 -15.748316 3 0 0
0.106353 -0.969879 -15.735739 3 0 0
0.101989 -0.968332 -15.710647 3 0 0
0.097732 -0.967715 -15.700631 3 0 0
0.093436 -0.966637 -15.683136 3 0 0
0.089348 -0.967715 -15.700631 3 0 0
0.085156 -0.967715 -15.700631 3 0 0
0.080939 -0.967407 -15.695629 3 0 0
0.076700 -0.966791 -15.685634 3 0 0
0.072466 -0.966175 -15.675651 3 0 0
0.068281 -0.966175 -15.675651 3 0 0
0.064075 -0.965868 -15.670664 3 0 0
0.059891 -0.965868 -15.670664 3 0 0
0.055752 -0.966637 -15.683136 3 0 0
0.051565 -0.966637 -15.683136 3 0 0
0.047423 -0.967561 -15.698130 2 0 0
0.043232 -0.967561 -15.698130 2 0 0
0.039034 -0.967407 -15.695629 2 0 0
0.034833 -0.967099 -15.690630 3 0 0
0.030644 -0.967099 -15.690630 3 0 0
0.026484 -0.968178 -15.708141 3 0 0
-0.002875 -0.969105 -15.723183 4 0 0
-0.007068 -0.968487 -15.713152 4 0 0
-0.011260 -0.968178 -15.708141 4 0 0
-0.015451 -0.968024 -15.705637 4 0 0
-0.053215 -0.968487 -15.713152 4 0 0
-0.057392 -0.968178 -15.708141 4 0 0
-0.061585 -0.968178 -15.708141 5 0 0
-0.065769 -0.968024 -15.705637 6 0 0
-0.069962 -0.968024 -15.705637 6 0 0
-0.074155 -0.968024 -15.705637 6 0 0
-0.078361 -0.968178 -15.708141 6 0 0
-0.082554 -0.968178 -15.708141 6 0 0
-0.086748 -0.968178 -15.708141 6 0 0
-0.090942 -0.968178 -15.708141 6 0 0
-0.095121 -0.968024 -15.705637 6 0 0
-0.099235 -0.967253 -15.693129 8 0 0
-0.103342 -0.966483 -15.680640 11 0 0
-0.107511 -0.966329 -15.678145 11 0 0
-0.111697 -0.966329 -15.678145 12 1 0
-0.115865 -0.966175 -15.675651 15 2 0
-0.120012 -0.965868 -15.670664 24 11 0
-0.124176 -0.965714 -15.668172 35 24 0
-0.128359 -0.965714 -15.668172 47 38 0
-0.132542 -0.965714 -15.668172 62 53 0
-0.136725 -0.965714 -15.668172 72 64 0
-0.655416 -1.473529 -23.907173 62 65 0
-0.649041 -1.445124 -23.446327 63 66 0
-0.668181 -1.473529 -23.907173 62 65 0
-0.736477 -1.482522 -24.053091 62 70 0
-0.742899 -1.482522 -24.053091 62 69 0
-0.745861 -1.475677 -23.942032 61 68 0
-0.749702 -1.470674 -23.860853 62 70 0
-0.755341 -1.469250 -23.837761 66 74 0
-0.760785 -1.467475 -23.808956 69 76 0
-0.766031 -1.465351 -23.774485 66 73 0
-0.774799 -1.457962 -23.654613 64 71 0
-0.769475 -1.436238 -23.302143 64 72 0
-0.772408 -1.430149 -23.203360 66 71 0
-0.778236 -1.429476 -23.192434 68 71 0
-0.783322 -1.427459 -23.159723 68 71 0
-0.836977 -1.478552 -23.988668 68 70 0
-0.843382 -1.478552 -23.988668 69 70 0
-0.852068 -1.482522 -24.053091 70 71 0
-0.858490 -1.482522 -24.053091 73 74 0
-0.864912 -1.482522 -24.053091 74 76 0
-0.871334 -1.482522 -24.053091 73 75 0
-0.918129 -1.264032 -20.508215 64 67 0
-0.923412 -1.263770 -20.503946 59 62 0
-0.929080 -1.264032 -20.508215 50 55 0
-0.934750 -1.264296 -20.512484 51 56 0
-0.939835 -1.263770 -20.503946 55 59 0
-0.943934 -1.261931 -20.474119 57 62 0
-0.949400 -1.261931 -20.474119 52 57 0
0.509875 -0.848576 -13.708287 1 0 0
0.506426 -0.848930 -13.714012 1 0 0
0.365906 -0.829193 -13.395168 0 0 0
0.361789 -0.827955 -13.375165 0 0 0
0.358218 -0.827955 -13.375165 0 0 0
0.243978 -0.970052 -15.670664 3 0 0
0.239603 -0.969281 -15.658211 3 0 0
0.235423 -0.969281 -15.658211 3 0 0
0.202623 -0.972372 -15.708141 3 0 0
0.198430 -0.972372 -15.708141 3 0 0
0.194267 -0.972527 -15.710647 3 0 0
0.190072 -0.972527 -15.710647 3 0 0
0.185819 -0.972217 -15.705637 3 0 0
0.181568 -0.971907 -15.700631 3 0 0
0.177348 -0.971752 -15.698130 3 0 0
0.173101 -0.971442 -15.693129 3 0 0
0.168911 -0.971442 -15.693129 3 0 0
0.164774 -0.971752 -15.698130 3 0 0
0.139717 -0.972372 -15.708141 3 0 0
0.135544 -0.972527 -15.710647 3 0 0
0.131329 -0.972372 -15.708141 3 0 0
0.127115 -0.972217 -15.705637 3 0 0
0.122922 -0.972217 -15.705637 3 0 0
0.115031 -0.976419 -15.773529 3 0 0
0.110589 -0.974391 -15.740767 3 0 0
0.106336 -0.973925 -15.733227 3 0 0
0.101989 -0.972527 -15.710647 3 0 0
0.097623 -0.970824 -15.683136 3 0 0
0.093391 -0.970361 -15.675651 3 0 0
0.089206 -0.970361 -15.675651 3 0 0
0.085143 -0.971752 -15.698130 3 0 0
0.080952 -0.971752 -15.698130 3 0 0
0.076748 -0.971597 -15.695629 3 0 0
0.072500 -0.970824 -15.683136 3 0 0
0.068259 -0.970052 -15.670664 3 0 0
0.064065 -0.969898 -15.668172 3 0 0
0.059882 -0.969898 -15.668172 3 0 0
0.055707 -0.970052 -15.670664 3 0 0
0.051524 -0.970052 -15.670664 3 0 0
0.047378 -0.970824 -15.683136 3 0 0
0.043225 -0.971597 -15.695629 3 0 0
0.039034 -0.971597 -15.695629 3 0 0
0.034838 -0.971442 -15.693129 3 0 0
0.030653 -0.971597 -15.695629 3 0 0
0.026484 -0.972372 -15.708141 3 0 0
-0.007068 -0.972682 -15.713152 4 0 0
-0.011260 -0.972372 -15.708141 4 0 0
-0.015451 -0.972217 -15.705637 4 0 0
-0.019648 -0.972372 -15.708141 4 0 0
-0.023830 -0.971907 -15.700631 4 0 0
-0.057383 -0.972217 -15.705637 4 0 0
-0.061566 -0.972062 -15.703135 4 0 0
-0.065758 -0.972062 -15.703135 5 0 0
-0.069962 -0.972217 -15.705637 5 0 0
-0.074179 -0.972527 -15.710647 5 0 0
-0.078373 -0.972527 -15.710647 5 0 0
-0.082554 -0.972372 -15.708141 4 0 0
-0.086734 -0.972217 -15.705637 5 0 0
-0.090928 -0.972217 -15.705637 7 0 0
-0.095075 -0.971752 -15.698130 7 0 0
-0.099266 -0.971752 -15.698130 8 0 0
-0.103326 -0.970515 -15.678145 12 0 0
-0.107511 -0.970515 -15.678145 12 0 0
-0.111662 -0.970206 -15.673157 13 1 0
-0.115828 -0.970052 -15.670664 15 4 0
-0.119992 -0.969898 -15.668172 22 11 0
-0.124136 -0.969589 -15.663190 32 22 0
-0.128318 -0.969589 -15.663190 45 37 0
-0.663893 -1.484595 -23.982830 62 65 0
-0.668181 -1.479912 -23.907173 60 64 0
-0.662507 -1.453459 -23.479853 60 64 0
-0.668776 -1.453459 -23.479853 61 66 0
-0.682856 -1.470279 -23.751558 62 69 0
-0.736477 -1.488944 -24.053091 63 72 0
-0.742899 -1.488944 -24.053091 62 71 0
-0.746405 -1.483151 -23.959499 62 70 0
-0.749702 -1.477044 -23.860853 63 72 0
-0.756073 -1.477044 -23.860853 67 75 0
-0.760785 -1.473832 -23.808956 70 77 0
-0.762351 -1.464629 -23.660294 66 73 0
-0.768484 -1.464278 -23.654613 65 72 0
-0.774799 -1.464278 -23.654613 66 72 0
-0.770204 -1.443825 -23.324209 65 71 0
-0.774049 -1.439395 -23.252647 67 71 0
-0.779337 -1.437698 -23.225239 69 71 0
-0.785168 -1.437021 -23.214294 69 71 0
-0.832803 -1.488944 -24.053091 70 72 0
-0.839225 -1.488944 -24.053091 70 73 0
-0.845647 -1.488944 -24.053091 70 74 0
-0.852068 -1.488944 -24.053091 68 72 0
-0.858490 -1.488944 -24.053091 67 73 0
-0.864912 -1.488944 -24.053091 66 73 0
-0.913415 -1.270566 -20.525305 68 72 0
-0.918321 -1.269772 -20.512484 64 67 0
-0.923797 -1.269772 -20.512484 57 61 0
-0.929661 -1.270301 -20.521030 50 55 0
-0.935139 -1.270301 -20.521030 53 58 0
-0.940226 -1.269772 -20.512484 57 61 0
-0.945703 -1.269772 -20.512484 59 64 0
0.509662 -0.851880 -13.702568 1 0 0
0.506215 -0.852236 -13.708287 1 0 0
0.366056 -0.833109 -13.400634 0 0 0
0.361936 -0.831865 -13.380614 0 0 0
0.357926 -0.830849 -13.364279 0 0 0
0.354358 -0.830849 -13.364279 0 0 0
0.206817 -0.976566 -15.708141 3 0 0
0.202623 -0.976566 -15.708141 3 0 0
0.198430 -0.976566 -15.708141 3 0 0
0.194236 -0.976566 -15.708141 3 0 0
0.190072 -0.976721 -15.710647 3 0 0
0.185819 -0.976410 -15.705637 3 0 0
0.181568 -0.976099 -15.700631 3 0 0
0.177263 -0.975477 -15.690630 3 0 0
0.172991 -0.975011 -15.683136 3 0 0
0.168777 -0.974856 -15.680640 3 0 0
0.164722 -0.975632 -15.693129 3 0 0
0.140186 -0.979846 -15.760912 2 0 0
0.135869 -0.979063 -15.748316 2 0 0
0.131434 -0.977345 -15.720674 2 0 0
0.127135 -0.976566 -15.708141 2 0 0
0.122922 -0.976410 -15.705637 2 0 0
0.118729 -0.976410 -15.705637 2 0 0
0.114792 -0.978594 -15.740767 2 0 0
0.110572 -0.978438 -15.738253 2 0 0
0.106336 -0.978125 -15.733227 2 0 0
0.101972 -0.976566 -15.708141 2 0 0
0.097623 -0.975011 -15.683136 2 0 0
0.093391 -0.974546 -15.675651 2 0 0
0.089206 -0.974546 -15.675651 2 0 0
0.085143 -0.975943 -15.698130 3 0 0
0.080952 -0.975943 -15.698130 3 0 0
0.076748 -0.975788 -15.695629 3 0 0
0.072535 -0.975477 -15.690630 4 0 0
0.068302 -0.974856 -15.680640 4 0 0
0.064095 -0.974546 -15.675651 4 0 0
0.059882 -0.974081 -15.668172 4 0 0
0.055699 -0.974081 -15.668172 4 0 0
0.051515 -0.974081 -15.668172 4 0 0
0.047378 -0.975011 -15.683136 3 0 0
0.043225 -0.975788 -15.695629 3 0 0
0.039034 -0.975788 -15.695629 3 0 0
0.034844 -0.975788 -15.695629 4 0 0
0.030653 -0.975788 -15.695629 4 0 0
0.026484 -0.976566 -15.708141 4 0 0
-0.011260 -0.976566 -15.708141 4 0 0
-0.015451 -0.976410 -15.705637 4 0 0
-0.019635 -0.975943 -15.698130 4 0 0
-0.023811 -0.975322 -15.688131 4 0 0
-0.028008 -0.975632 -15.693129 4 0 0
-0.057383 -0.976410 -15.705637 4 0 0
-0.061566 -0.976254 -15.703135 4 0 0
-0.065758 -0.976254 -15.703135 4 0 0
-0.069995 -0.976877 -15.713152 4 0 0
-0.074214 -0.977189 -15.718165 4 0 0
-0.078398 -0.977033 -15.715658 5 0 0
-0.082568 -0.976721 -15.710647 5 0 0
-0.086734 -0.976410 -15.705637 5 0 0
-0.090913 -0.976254 -15.703135 7 0 0
-0.095075 -0.975943 -15.698130 7 0 0
-0.099266 -0.975943 -15.698130 8 0 0
-0.103359 -0.975011 -15.683136 10 0 0
-0.107511 -0.974701 -15.678145 10 0 0
-0.111662 -0.974391 -15.673157 12 1 0
-0.115809 -0.974081 -15.668172 15 4 0
-0.119973 -0.973926 -15.665680 23 11 0
-0.124136 -0.973771 -15.663190 37 27 0
-0.128318 -0.973771 -15.663190 59 53 0
-0.657490 -1.490998 -23.982830 64 67 0
-0.663570 -1.490272 -23.971159 63 66 0
-0.668993 -1.488100 -23.936216 60 65 0
-0.662507 -1.459728 -23.479853 63 68 0
-0.668616 -1.459380 -23.474258 64 70 0
-0.675044 -1.459728 -23.479853 63 72 0
-0.736477 -1.495366 -24.053091 63 73 0
-0.742899 -1.495366 -24.053091 63 73 0
-0.747314 -1.491361 -23.988668 64 73 0
-0.749884 -1.483774 -23.866634 63 73 0
-0.756256 -1.483774 -23.866634 65 74 0
-0.761153 -1.480904 -23.820469 69 77 0
-0.762168 -1.470593 -23.654613 65 73 0
-0.768484 -1.470593 -23.654613 66 72 0
-0.774427 -1.469887 -23.643259 67 72 0
-0.773132 -1.455565 -23.412895 65 71 0
-0.774049 -1.445603 -23.252647 67 71 0
-0.780257 -1.445603 -23.252647 69 71 0
-0.785168 -1.443218 -23.214294 69 71 0
-0.826381 -1.495366 -24.053091 70 72 0
-0.832803 -1.495366 -24.053091 70 72 0
-0.839225 -1.495366 -24.053091 70 74 0
-0.845647 -1.495366 -24.053091 69 74 0
-0.852068 -1.495366 -24.053091 68 73 0
-0.858490 -1.495366 -24.053091 68 74 0
-0.913415 -1.276046 -20.525305 68 73 0
-0.918703 -1.275780 -20.521030 63 68 0
-0.924182 -1.275780 -20.521030 60 65 0
-0.929661 -1.275780 -20.521030 57 62 0
-0.935334 -1.276046 -20.525305 59 64 0
-0.940618 -1.275780 -20.521030 60 64 0
-0.946097 -1.275780 -20.521030 59 63 0
0.509662 -0.855539 -13.702568 0 0 0
0.506003 -0.855539 -13.702568 0 0 0
0.366155 -0.836915 -13.404281 0 0 0
0.362035 -0.835664 -13.384250 0 0 0
0.357975 -0.834530 -13.366092 0 0 0
0.354406 -0.834530 -13.366092 0 0 0
0.285998 -0.979042 -15.680640 1 0 0
0.281542 -0.978108 -15.665680 1 0 0
0.277360 -0.978108 -15.665680 1 0 0
0.206817 -0.980759 -15.708141 3 0 0
0.202623 -0.980759 -15.708141 3 0 0
0.198398 -0.980603 -15.705637 3 0 0
0.194329 -0.981229 -15.715658 3 0 0
0.190133 -0.981229 -15.715658 3 0 0
0.185878 -0.980916 -15.710647 3 0 0
0.181625 -0.980603 -15.705637 3 0 0
0.177178 -0.979198 -15.683136 3 0 0
0.172991 -0.979198 -15.683136 3 0 0
0.168696 -0.978575 -15.673157 3 0 0
0.164512 -0.978575 -15.673157 3 0 0
0.140231 -0.984369 -15.765957 1 0 0
0.135913 -0.983582 -15.753352 1 0 0
0.131665 -0.983268 -15.748316 1 0 0
0.127237 -0.981542 -15.720674 1 0 0
0.122941 -0.980759 -15.708141 1 0 0
0.118766 -0.980916 -15.710647 1 0 0
0.114773 -0.982639 -15.738253 1 0 0
0.110572 -0.982639 -15.738253 1 0 0
0.106336 -0.982326 -15.733227 2 0 0
0.101956 -0.980603 -15.705637 2 0 0
0.097623 -0.979198 -15.683136 2 0 0
0.093436 -0.979198 -15.683136 2 0 0
0.089249 -0.979198 -15.683136 2 0 0
0.085143 -0.980134 -15.698130 3 0 0
0.080952 -0.980134 -15.698130 3 0 0
0.076736 -0.979822 -15.693129 3 0 0
0.072535 -0.979666 -15.690630 3 0 0
0.068346 -0.979666 -15.690630 4 0 0
0.064187 -0.980134 -15.698130 4 0 0
0.059996 -0.980134 -15.698130 4 0 0
0.055734 -0.978886 -15.678145 3 0 0
0.051540 -0.978731 -15.675651 3 0 0
0.034844 -0.979978 -15.695629 3 0 0
0.030653 -0.979978 -15.695629 3 0 0
0.026488 -0.980916 -15.710647 3 0 0
-0.011262 -0.980916 -15.710647 4 0 0
-0.015454 -0.980759 -15.708141 4 0 0
-0.019638 -0.980290 -15.700631 4 0 0
-0.023815 -0.979666 -15.690630 4 0 0
-0.028004 -0.979666 -15.690630 4 0 0
-0.032208 -0.980134 -15.698130 4 0 0
-0.061615 -0.981229 -15.715658 4 0 0
-0.065811 -0.981229 -15.715658 4 0 0
-0.070018 -0.981385 -15.718165 4 0 0
-0.074250 -0.981855 -15.725693 4 0 0
-0.078411 -0.981385 -15.718165 6 0 0
-0.082581 -0.981072 -15.713152 6 0 0
-0.086734 -0.980603 -15.705637 6 0 0
-0.090913 -0.980447 -15.703135 7 0 0
-0.095075 -0.980134 -15.698130 7 0 0
-0.099250 -0.979978 -15.695629 7 0 0
-0.103408 -0.979666 -15.690630 8 0 0
-0.107529 -0.979042 -15.680640 9 0 0
-0.111680 -0.978731 -15.675651 10 1 0
-0.115846 -0.978575 -15.673157 15 4 0
-0.119992 -0.978264 -15.668172 23 12 0
-0.124156 -0.978108 -15.665680 41 31 0
-0.128420 -0.978731 -15.675651 70 63 1
-0.668776 -1.465997 -23.479853 62 70 0
-0.688165 -1.494490 -23.936216 62 71 0
-0.736477 -1.501788 -24.053091 61 74 0
-0.742899 -1.501788 -24.053091 62 74 0
-0.747314 -1.497765 -23.988668 62 75 0
-0.750247 -1.490868 -23.878202 62 75 0
-0.756256 -1.490146 -23.866634 64 76 0
-0.761153 -1.487264 -23.820469 67 77 0
-0.762168 -1.476908 -23.654613 64 74 0
-0.767194 -1.474430 -23.614923 64 73 0
-0.774427 -1.476199 -23.643259 65 72 0
-0.779057 -1.473018 -23.592304 65 72 0
-0.774049 -1.451811 -23.252647 67 72 0
-0.778970 -1.449416 -23.214294 69 72 0
-0.782770 -1.444990 -23.143402 68 71 0
-0.819960 -1.501788 -24.053091 69 72 0
-0.826381 -1.501788 -24.053091 70 73 0
-0.832803 -1.501788 -24.053091 69 72 0
-0.839225 -1.501788 -24.053091 68 72 0
-0.845647 -1.501788 -24.053091 67 72 0
-0.849579 -1.497401 -23.982830 69 74 0
-0.858490 -1.501788 -24.053091 71 75 0
-0.913415 -1.281526 -20.525305 73 76 0
-0.918703 -1.281259 -20.521030 69 72 0
-0.924182 -1.281259 -20.521030 66 68 0
-0.929661 -1.281259 -20.521030 63 65 0
-0.935334 -1.281526 -20.525305 70 71 0
-0.940814 -1.281526 -20.525305 66 67 0
0.509662 -0.859197 -13.702568 0 0 0
0.506144 -0.859436 -13.706381 0 0 0
0.366205 -0.840608 -13.406105 1 0 0
0.362035 -0.839237 -13.384250 1 0 0
0.358315 -0.838895 -13.378798 1 0 0
0.285998 -0.983229 -15.680640 1 0 0
0.281632 -0.982603 -15.670664 1 0 0
0.277360 -0.982291 -15.665680 1 0 0
0.206916 -0.985424 -15.715658 3 0 0
0.190194 -0.985739 -15.720674 3 0 0
0.185937 -0.985424 -15.715658 3 0 0
0.181625 -0.984796 -15.705637 3 0 0
0.177178 -0.983385 -15.683136 3 0 0
0.172936 -0.983072 -15.678145 3 0 0
0.168696 -0.982759 -15.673157 3 0 0
0.164512 -0.982759 -15.673157 3 0 0
0.144417 -0.988420 -15.763434 3 0 0
0.140186 -0.988262 -15.760912 3 0 0
0.135935 -0.987946 -15.755871 2 0 0
0.131665 -0.987472 -15.748316 1 0 0
0.127379 -0.986841 -15.738253 1 0 0
0.123039 -0.985739 -15.720674 1 0 0
0.118861 -0.985896 -15.723183 1 0 0
0.114737 -0.986526 -15.733227 1 0 0
0.110536 -0.986526 -15.733227 2 0 0
0.106251 -0.985739 -15.720674 3 0 0
0.101956 -0.984796 -15.705637 3 0 0
0.097747 -0.984639 -15.703135 3 0 0
0.093466 -0.983698 -15.688131 3 0 0
0.089334 -0.984325 -15.698130 3 0 0
0.085143 -0.984325 -15.698130 3 0 0
0.080952 -0.984325 -15.698130 3 0 0
0.076748 -0.984169 -15.695629 3 0 0
0.072558 -0.984169 -15.695629 3 0 0
0.068400 -0.984639 -15.703135 3 0 0
0.064208 -0.984639 -15.703135 3 0 0
0.060044 -0.985110 -15.710647 3 0 0
0.055832 -0.984796 -15.705637 3 0 0
0.051663 -0.985267 -15.713152 3 0 0
0.034861 -0.984639 -15.703135 3 0 0
0.030668 -0.984639 -15.703135 3 0 0
0.026488 -0.985110 -15.710647 3 0 0
0.022322 -0.986369 -15.730714 4 0 0
0.018123 -0.986369 -15.730714 4 0 0
0.013912 -0.985582 -15.718165 4 0 0
0.009712 -0.985267 -15.713152 4 0 0
0.005517 -0.985267 -15.713152 4 0 0
-0.011260 -0.984953 -15.708141 4 0 0
-0.015451 -0.984796 -15.705637 4 0 0
-0.019644 -0.984796 -15.705637 4 0 0
-0.023826 -0.984325 -15.698130 4 0 0
-0.028017 -0.984325 -15.698130 4 0 0
-0.032214 -0.984482 -15.700631 3 0 0
-0.036405 -0.984482 -15.700631 3 0 0
-0.040610 -0.984796 -15.705637 3 0 0
-0.065905 -0.986841 -15.738253 4 0 0
-0.070085 -0.986526 -15.733227 4 0 0
-0.074214 -0.985582 -15.718165 4 0 0
-0.078398 -0.985424 -15.715658 4 0 0
-0.082568 -0.985110 -15.710647 4 0 0
-0.086748 -0.984953 -15.708141 5 0 0
-0.090928 -0.984796 -15.705637 6 0 0
-0.095105 -0.984639 -15.703135 6 0 0
-0.099250 -0.984169 -15.695629 6 0 0
-0.103408 -0.983855 -15.690630 7 0 0
-0.107597 -0.983855 -15.690630 7 0 0
-0.111786 -0.983855 -15.690630 9 1 0
-0.115865 -0.982916 -15.675651 13 3 0
-0.120050 -0.982916 -15.675651 22 12 0
-0.124492 -0.984953 -15.708141 43 33 1
-0.128686 -0.984953 -15.708141 74 64 2
-0.132880 -0.984953 -15.708141 76 66 2
-0.688165 -1.500881 -23.936216 58 67 0
-0.736477 -1.508209 -24.053091 62 74 0
-0.742899 -1.508209 -24.053091 63 74 0
-0.746950 -1.503438 -23.976994 63 74 0
-0.750247 -1.497243 -23.878202 63 74 0
-0.755890 -1.495793 -23.855076 64 74 0
-0.756761 -1.485006 -23.683044 66 74 0
-0.760889 -1.480735 -23.614923 65 73 0
-0.766276 -1.478962 -23.586657 64 72 0
-0.772758 -1.479317 -23.592304 64 73 0
-0.778311 -1.477901 -23.569729 64 73 0
-0.773866 -1.457675 -23.247160 65 72 0
-0.776591 -1.451169 -23.143402 65 71 0
-0.780204 -1.446412 -23.067539 66 72 0
-0.786363 -1.446412 -23.067539 67 72 0
-0.826381 -1.508209 -24.053091 68 72 0
-0.832803 -1.508209 -24.053091 67 72 0
-0.839225 -1.508209 -24.053091 67 72 0
-0.843176 -1.503804 -23.982830 67 72 0
-0.849579 -1.503804 -23.982830 68 73 0
-0.917938 -1.285666 -20.503946 70 75 0
-0.923412 -1.285666 -20.503946 66 71 0
-0.929661 -1.286737 -20.521030 65 69 0
-0.935334 -1.287005 -20.525305 69 73 0
-0.940814 -1.287005 -20.525305 61 66 0
0.509662 -0.862855 -13.702568 0 0 0
0.361887 -0.842467 -13.378798 0 0 0
0.358315 -0.842467 -13.378798 0 0 0
0.286362 -0.988674 -15.700631 0 0 0
0.282170 -0.988674 -15.700631 0 0 0
0.206916 -0.989620 -15.715658 3 0 0
0.190406 -0.991043 -15.738253 3 0 0
0.185996 -0.989936 -15.720674 3 0 0
0.181654 -0.989147 -15.708141 3 0 0
0.177291 -0.988202 -15.693129 3 0 0
0.172991 -0.987572 -15.683136 3 0 0
0.168696 -0.986944 -15.673157 3 0 0
0.164512 -0.986944 -15.673157 3 0 0
0.152687 -0.991677 -15.748316 3 0 0
0.148483 -0.991677 -15.748316 2 0 0
0.144278 -0.991677 -15.748316 2 0 0
0.140141 -0.992153 -15.755871 2 0 0
0.135913 -0.991994 -15.753352 1 0 0
0.131644 -0.991518 -15.745799 1 0 0
0.127379 -0.991043 -15.738253 1 0 0
0.123177 -0.991043 -15.738253 1 0 0
0.118937 -0.990727 -15.733227 1 0 0
0.114737 -0.990727 -15.733227 1 0 0
0.110466 -0.990094 -15.723183 1 0 0
0.106217 -0.989620 -15.715658 2 0 0
0.101972 -0.989147 -15.708141 2 0 0
0.097747 -0.988832 -15.703135 2 0 0
0.093555 -0.988832 -15.703135 2 0 0
0.089377 -0.988989 -15.705637 2 0 0
0.085197 -0.989147 -15.708141 2 0 0
0.080978 -0.988832 -15.703135 3 0 0
0.076785 -0.988832 -15.703135 3 0 0
0.072616 -0.989147 -15.708141 3 0 0
0.068422 -0.989147 -15.708141 3 0 0
0.064228 -0.989147 -15.708141 3 0 0
0.060073 -0.989778 -15.718165 3 0 0
0.055885 -0.989936 -15.720674 3 0 0
0.051688 -0.989936 -15.720674 3 0 0
0.047491 -0.989936 -15.720674 3 0 0
0.043294 -0.989936 -15.720674 3 0 0
0.034872 -0.989147 -15.708141 4 0 0
0.030683 -0.989305 -15.710647 4 0 0
0.026501 -0.989778 -15.718165 4 0 0
0.022322 -0.990568 -15.730714 4 0 0
0.018123 -0.990568 -15.730714 4 0 0
0.013912 -0.989778 -15.718165 4 0 0
0.009712 -0.989462 -15.713152 4 0 0
0.005517 -0.989462 -15.713152 4 0 0
0.001322 -0.989305 -15.710647 4 0 0
-0.002872 -0.989147 -15.708141 4 0 0
-0.007066 -0.989147 -15.708141 4 0 0
-0.011258 -0.988989 -15.705637 4 0 0
-0.015451 -0.988989 -15.705637 4 0 0
-0.019644 -0.988989 -15.705637 4 0 0
-0.023845 -0.989305 -15.710647 4 0 0
-0.028035 -0.989147 -15.708141 3 0 0
-0.032224 -0.988989 -15.705637 3 0 0
-0.036405 -0.988674 -15.700631 3 0 0
-0.040597 -0.988674 -15.700631 3 0 0
-0.044803 -0.988989 -15.705637 3 0 0
-0.049035 -0.989778 -15.718165 3 0 0
-0.053308 -0.991201 -15.740767 3 0 0
-0.057529 -0.991518 -15.745799 3 0 0
-0.061733 -0.991518 -15.745799 3 0 0
-0.065937 -0.991518 -15.745799 4 0 0
-0.070096 -0.990885 -15.735739 4 0 0
-0.074214 -0.989778 -15.718165 4 0 0
-0.078386 -0.989462 -15.713152 4 0 0
-0.082568 -0.989305 -15.710647 4 0 0
-0.086762 -0.989305 -15.710647 5 0 0
-0.090957 -0.989305 -15.710647 6 0 0
-0.095136 -0.989147 -15.708141 6 0 0
-0.099314 -0.988989 -15.705637 6 0 0
-0.103457 -0.988517 -15.698130 7 0 0
-0.107649 -0.988517 -15.698130 7 0 0
-0.111857 -0.988674 -15.700631 8 0 0
-0.116068 -0.988832 -15.703135 10 2 0
-0.120395 -0.989936 -15.720674 18 9 0
-0.124592 -0.989936 -15.720674 32 23 0
-0.128686 -0.989147 -15.708141 58 48 1
-0.132711 -0.987887 -15.688131 66 57 4
-0.136899 -0.987887 -15.688131 75 67 4
-0.688165 -1.507272 -23.936216 55 63 0
-0.681313 -1.478534 -23.479853 57 65 0
-0.736477 -1.514631 -24.053091 64 74 0
-0.742899 -1.514631 -24.053091 64 74 0
-0.746405 -1.508738 -23.959499 65 73 0
-0.750429 -1.503983 -23.883991 65 73 0
-0.755890 -1.502162 -23.855076 65 73 0
-0.756216 -1.490255 -23.665977 66 73 0
-0.759979 -1.485260 -23.586657 65 72 0
-0.765726 -1.484194 -23.569729 64 72 0
-0.770912 -1.482066 -23.535944 64 72 0
-0.773132 -1.474318 -23.412895 64 72 0
-0.774231 -1.464573 -23.258135 65 72 0
-0.779889 -1.463536 -23.241676 65 71 0
-0.780204 -1.452571 -23.067539 66 72 0
-0.786363 -1.452571 -23.067539 67 72 0
-0.826381 -1.514631 -24.053091 68 73 0
-0.832803 -1.514631 -24.053091 68 73 0
-0.839225 -1.514631 -24.053091 68 72 0
-0.845647 -1.514631 -24.053091 68 73 0
-0.849579 -1.510207 -23.982830 68 73 0
-0.916984 -1.289798 -20.482634 68 78 0
-0.922453 -1.289798 -20.482634 63 73 0
-0.927921 -1.289798 -20.482634 63 73 0
-0.935529 -1.292755 -20.529581 62 72 0
-0.923310 -1.268438 -20.143419 53 63 0
0.497687 -0.846154 -13.380614 0 0 0
0.361887 -0.846039 -13.378798 0 0 0
0.358315 -0.846039 -13.378798 0 0 0
0.307517 -0.993499 -15.710647 0 0 0
0.303323 -0.993499 -15.710647 0 0 0
0.299128 -0.993499 -15.710647 0 0 0
0.286499 -0.993341 -15.708141 0 0 0
0.282260 -0.993182 -15.705637 0 0 0
0.206916 -0.993816 -15.715658 3 0 0
0.190406 -0.995245 -15.738253 3 0 0
0.185996 -0.994133 -15.720674 3 0 0
0.181654 -0.993341 -15.708141 3 0 0
0.177291 -0.992391 -15.693129 3 0 0
0.173074 -0.992233 -15.690630 3 0 0
0.168777 -0.991602 -15.680640 3 0 0
0.164617 -0.991759 -15.683136 3 0 0
0.161122 -0.996040 -15.750834 3 0 0
0.156917 -0.996040 -15.750834 3 0 0
0.152687 -0.995881 -15.748316 3 0 0
0.148459 -0.995722 -15.745799 2 0 0
0.144255 -0.995722 -15.745799 1 0 0
0.140051 -0.995722 -15.745799 1 0 0
0.135848 -0.995722 -15.745799 1 0 0
0.131581 -0.995245 -15.738253 1 0 0
0.127379 -0.995245 -15.738253 1 0 0
0.123177 -0.995245 -15.738253 1 0 0
0.118975 -0.995245 -15.738253 1 0 0
0.114737 -0.994927 -15.733227 1 0 0
0.110466 -0.994292 -15.723183 1 0 0
0.106217 -0.993816 -15.715658 1 0 0
0.101972 -0.993341 -15.708141 1 0 0
0.097763 -0.993182 -15.705637 1 0 0
0.093570 -0.993182 -15.705637 1 0 0
0.089391 -0.993341 -15.708141 1 0 0
0.085197 -0.993341 -15.708141 2 0 0
0.081003 -0.993341 -15.708141 3 0 0
0.076810 -0.993341 -15.708141 3 0 0
0.072616 -0.993341 -15.708141 3 0 0
0.068433 -0.993499 -15.710647 3 0 0
0.064279 -0.994133 -15.720674 3 0 0
0.060111 -0.994609 -15.728203 3 0 0
0.055885 -0.994133 -15.720674 3 0 0
0.051688 -0.994133 -15.720674 3 0 0
0.047468 -0.993658 -15.713152 3 0 0
0.043273 -0.993658 -15.713152 3 0 0
0.039072 -0.993499 -15.710647 3 0 0
0.034872 -0.993341 -15.708141 3 0 0
0.030698 -0.993975 -15.718165 3 0 0
0.026514 -0.994451 -15.725693 3 0 0
0.022322 -0.994768 -15.730714 4 0 0
0.018123 -0.994768 -15.730714 4 0 0
0.013914 -0.994133 -15.720674 4 0 0
0.009715 -0.993975 -15.718165 4 0 0
0.005517 -0.993658 -15.713152 4 0 0
0.001322 -0.993499 -15.710647 4 0 0
-0.002872 -0.993341 -15.708141 4 0 0
-0.007065 -0.993182 -15.705637 4 0 0
-0.011256 -0.993024 -15.703135 4 0 0
-0.015451 -0.993182 -15.705637 4 0 0
-0.019654 -0.993658 -15.713152 4 0 0
-0.023849 -0.993658 -15.713152 4 0 0
-0.028044 -0.993658 -15.713152 3 0 0
-0.032234 -0.993499 -15.710647 3 0 0
-0.036417 -0.993182 -15.705637 3 0 0
-0.040604 -0.993024 -15.703135 3 0 0
-0.044803 -0.993182 -15.705637 3 0 0
-0.049004 -0.993341 -15.708141 3 0 0
-0.053249 -0.994292 -15.723183 3 0 0
-0.057502 -0.995245 -15.738253 3 0 0
-0.061713 -0.995404 -15.740767 3 0 0
-0.065916 -0.995404 -15.740767 3 0 0
-0.070085 -0.994927 -15.733227 3 0 0
-0.074214 -0.993975 -15.718165 3 0 0
-0.078398 -0.993816 -15.715658 4 0 0
-0.082568 -0.993499 -15.710647 4 0 0
-0.086762 -0.993499 -15.710647 4 0 0
-0.090971 -0.993658 -15.713152 5 0 0
-0.095166 -0.993658 -15.713152 6 0 0
-0.099330 -0.993341 -15.708141 6 0 0
-0.103507 -0.993182 -15.705637 7 0 0
-0.107683 -0.993024 -15.703135 7 0 0
-0.111911 -0.993341 -15.708141 7 0 0
-0.116234 -0.994451 -15.725693 8 1 0
-0.120433 -0.994451 -15.725693 15 8 0
-0.124592 -0.994133 -15.720674 28 21 0
-0.128686 -0.993341 -15.708141 49 43 0
-0.132711 -0.992075 -15.688131 60 54 3
-0.136899 -0.992075 -15.688131 71 65 3
-0.681313 -1.484803 -23.479853 60 65 0
-0.685621 -1.480569 -23.412895 60 65 0
-0.691872 -1.480569 -23.412895 60 67 0
-0.698289 -1.480921 -23.418461 63 70 0
-0.704708 -1.481273 -23.424028 66 73 0
-0.730055 -1.521053 -24.053091 67 74 0
-0.736477 -1.521053 -24.053091 66 73 0
-0.742899 -1.521053 -24.053091 66 73 0
-0.746950 -1.516241 -23.976994 66 73 0
-0.752802 -1.515134 -23.959499 66 73 0
-0.756439 -1.509628 -23.872417 66 73 0
-0.756216 -1.496573 -23.665977 67 74 0
-0.759797 -1.491200 -23.581011 66 73 0
-0.763898 -1.486929 -23.513475 65 71 0
-0.769258 -1.485157 -23.485451 65 70 0
-0.770934 -1.476359 -23.346319 66 71 0
-0.776431 -1.474960 -23.324209 67 72 0
-0.780441 -1.470782 -23.258135 67 72 0
-0.826381 -1.521053 -24.053091 70 74 0
-0.832803 -1.521053 -24.053091 69 73 0
-0.839225 -1.521053 -24.053091 69 73 0
-0.917556 -1.296075 -20.495415 69 79 0
-0.923028 -1.296075 -20.495415 68 78 0
-0.931795 -1.300675 -20.568155 67 77 0
-0.936114 -1.299048 -20.542423 62 72 0
-0.923310 -1.273816 -20.143419 52 62 0
-0.946294 -1.297965 -20.525305 40 49 0
0.497484 -0.849380 -13.375165 0 0 0
0.494115 -0.849727 -13.380614 0 0 0
0.361887 -0.849611 -13.378798 0 0 0
0.358315 -0.849611 -13.378798 0 0 0
0.307566 -0.997853 -15.713152 0 0 0
0.303274 -0.997535 -15.708141 0 0 0
0.299081 -0.997535 -15.708141 0 0 0
0.286499 -0.997535 -15.708141 0 0 0
0.282305 -0.997535 -15.708141 0 0 0
0.206982 -0.998330 -15.720674 3 0 0
0.202785 -0.998330 -15.720674 3 0 0
0.194608 -0.999447 -15.738253 3 0 0
0.190194 -0.998330 -15.720674 3 0 0
0.185967 -0.998171 -15.718165 3 0 0
0.181654 -0.997535 -15.708141 3 0 0
0.177319 -0.996740 -15.695629 3 0 0
0.173074 -0.996422 -15.690630 3 0 0
0.168858 -0.996264 -15.688131 3 0 0
0.164669 -0.996264 -15.688131 3 0 0
0.161122 -1.000246 -15.750834 3 0 0
0.156917 -1.000246 -15.750834 3 0 0
0.152687 -1.000086 -15.748316 3 0 0
0.148483 -1.000086 -15.748316 3 0 0
0.144232 -0.999766 -15.743282 3 0 0
0.140007 -0.999606 -15.740767 3 0 0
0.135782 -0.999447 -15.738253 2 0 0
0.131581 -0.999447 -15.738253 1 0 0
0.127379 -0.999447 -15.738253 1 0 0
0.123177 -0.999447 -15.738253 1 0 0
0.118975 -0.999447 -15.738253 1 0 0
0.114773 -0.999447 -15.738253 1 0 0
0.110483 -0.998649 -15.725693 1 0 0
0.106234 -0.998171 -15.718165 1 0 0
0.101989 -0.997694 -15.710647 1 0 0
0.097763 -0.997375 -15.705637 1 0 0
0.093570 -0.997375 -15.705637 1 0 0
0.089377 -0.997375 -15.705637 1 0 0
0.085197 -0.997535 -15.708141 2 0 0
0.081029 -0.997853 -15.713152 3 0 0
0.076834 -0.997853 -15.713152 3 0 0
0.072639 -0.997853 -15.713152 3 0 0
0.068455 -0.998012 -15.715658 3 0 0
0.064321 -0.998968 -15.730714 3 0 0
0.060121 -0.998968 -15.730714 3 0 0
0.055921 -0.998968 -15.730714 3 0 0
0.051705 -0.998649 -15.725693 3 0 0
0.047491 -0.998330 -15.720674 3 0 0
0.043273 -0.997853 -15.713152 3 0 0
0.039072 -0.997694 -15.710647 3 0 0
0.034872 -0.997535 -15.708141 3 0 0
0.026526 -0.999128 -15.733227 3 0 0
0.022326 -0.999128 -15.733227 3 0 0
0.018123 -0.998968 -15.730714 4 0 0
0.013914 -0.998330 -15.720674 4 0 0
0.009714 -0.998012 -15.715658 4 0 0
0.005518 -0.998012 -15.715658 4 0 0
0.001322 -0.997694 -15.710647 4 0 0
-0.002872 -0.997535 -15.708141 4 0 0
-0.007065 -0.997375 -15.705637 4 0 0
-0.011256 -0.997217 -15.703135 3 0 0
-0.015454 -0.997535 -15.708141 3 0 0
-0.019648 -0.997535 -15.708141 3 0 0
-0.023849 -0.997853 -15.713152 3 0 0
-0.028044 -0.997853 -15.713152 3 0 0
-0.032234 -0.997694 -15.710647 3 0 0
-0.036423 -0.997535 -15.708141 3 0 0
-0.040617 -0.997535 -15.708141 3 0 0
-0.044810 -0.997535 -15.708141 3 0 0
-0.049012 -0.997694 -15.710647 3 0 0
-0.053232 -0.998171 -15.718165 3 0 0
-0.057447 -0.998490 -15.723183 3 0 0
-0.061713 -0.999606 -15.740767 3 0 0
-0.065895 -0.999287 -15.735739 3 0 0
-0.070029 -0.998330 -15.720674 3 0 0
-0.074226 -0.998330 -15.720674 3 0 0
-0.078398 -0.998012 -15.715658 4 0 0
-0.082581 -0.997853 -15.713152 4 0 0
-0.086762 -0.997694 -15.710647 4 0 0
-0.090957 -0.997694 -15.710647 4 0 0
-0.095166 -0.997853 -15.713152 4 0 0
-0.099345 -0.997694 -15.710647 5 0 0
-0.103523 -0.997535 -15.708141 7 0 0
-0.107734 -0.997694 -15.710647 7 0 0
-0.112036 -0.998649 -15.725693 7 0 0
-0.116272 -0.998968 -15.730714 7 2 0
-0.120471 -0.998968 -15.730714 14 9 0
-0.124592 -0.998330 -15.720674 27 23 0
-0.128707 -0.997694 -15.710647 47 45 0
-0.132753 -0.996581 -15.693129 58 56 0
-0.136943 -0.996581 -15.693129 67 65 0
-0.685621 -1.486820 -23.412895 61 65 0
-0.691872 -1.486820 -23.412895 57 61 0
-0.698289 -1.487173 -23.418461 63 68 0
-0.704541 -1.487173 -23.418461 68 72 0
-0.730055 -1.527475 -24.053091 68 73 0
-0.736477 -1.527475 -24.053091 67 72 0
-0.742899 -1.527475 -24.053091 66 71 0
-0.749321 -1.527475 -24.053091 66 72 0
-0.754947 -1.500368 -23.626249 67 73 0
-0.759252 -1.496421 -23.564091 67 72 0
-0.763534 -1.492494 -23.502258 66 72 0
-0.766882 -1.486820 -23.412895 66 71 0
-0.770386 -1.481538 -23.329733 68 73 0
-0.776431 -1.481188 -23.324209 67 73 0
-0.917556 -1.301547 -20.495415 68 78 0
-0.923412 -1.302089 -20.503946 69 78 0
0.495667 -0.849836 -13.326317 0 0 0
0.493110 -0.851564 -13.353411 0 0 0
0.362231 -0.853995 -13.391527 0 0 0
0.307566 -1.002048 -15.713152 0 0 0
0.303178 -1.001409 -15.703135 0 0 0
0.298985 -1.001409 -15.703135 0 0 0
0.286499 -1.001728 -15.708141 0 0 0
0.282260 -1.001569 -15.705637 0 0 0
0.206982 -1.002527 -15.720674 3 0 0
0.202720 -1.002208 -15.715658 3 0 0
0.198493 -1.002048 -15.713152 3 0 0
0.194360 -1.002368 -15.718165 3 0 0
0.190163 -1.002368 -15.718165 3 0 0
0.185907 -1.002048 -15.713152 3 0 0
0.181654 -1.001728 -15.708141 3 0 0
0.177319 -1.000930 -15.695629 3 0 0
0.173101 -1.000771 -15.693129 3 0 0
0.168911 -1.000771 -15.693129 3 0 0
0.164827 -1.001409 -15.703135 3 0 0
0.161225 -1.005094 -15.760912 3 0 0
0.157017 -1.005094 -15.760912 3 0 0
0.152712 -1.004451 -15.750834 3 0 0
0.148459 -1.004130 -15.745799 3 0 0
0.144209 -1.003809 -15.740767 3 0 0
0.139984 -1.003649 -15.738253 3 0 0
0.135761 -1.003488 -15.735739 3 0 0
0.131560 -1.003488 -15.735739 2 0 0
0.127318 -1.003168 -15.730714 2 0 0
0.123039 -1.002527 -15.720674 2 0 0
0.118937 -1.003328 -15.733227 1 0 0
0.114773 -1.003649 -15.738253 1 0 0
0.110536 -1.003328 -15.733227 1 0 0
0.106251 -1.002527 -15.720674 1 0 0
0.101989 -1.001888 -15.710647 1 0 0
0.097747 -1.001409 -15.703135 1 0 0
0.093555 -1.001409 -15.703135 1 0 0
0.089377 -1.001569 -15.705637 1 0 0
0.085211 -1.001888 -15.710647 1 0 0
0.081029 -1.002048 -15.713152 1 0 0
0.076834 -1.002048 -15.713152 1 0 0
0.072651 -1.002208 -15.715658 1 0 0
0.068466 -1.002368 -15.718165 1 0 0
0.064331 -1.003328 -15.733227 1 0 0
0.060130 -1.003328 -15.733227 2 0 0
0.055921 -1.003168 -15.730714 3 0 0
0.051705 -1.002848 -15.725693 3 0 0
0.047499 -1.002687 -15.723183 3 0 0
0.043273 -1.002048 -15.713152 3 0 0
0.039066 -1.001728 -15.708141 3 0 0
0.034872 -1.001728 -15.708141 3 0 0
0.022326 -1.003328 -15.733227 3 0 0
0.018114 -1.002687 -15.723183 3 0 0
0.013909 -1.002208 -15.715658 3 0 0
0.009714 -1.002208 -15.715658 3 0 0
0.005516 -1.001888 -15.710647 3 0 0
0.001321 -1.001728 -15.708141 3 0 0
-0.002872 -1.001569 -15.705637 3 0 0
-0.007065 -1.001569 -15.705637 3 0 0
-0.011260 -1.001728 -15.708141 3 0 0
-0.015454 -1.001728 -15.708141 3 0 0
-0.019648 -1.001728 -15.708141 3 0 0
-0.023841 -1.001728 -15.708141 3 0 0
-0.028040 -1.001888 -15.710647 3 0 0
-0.032234 -1.001888 -15.710647 3 0 0
-0.036429 -1.001888 -15.710647 3 0 0
-0.040623 -1.001888 -15.710647 3 0 0
-0.044817 -1.001888 -15.710647 3 0 0
-0.049012 -1.001888 -15.710647 3 0 0
-0.053215 -1.002048 -15.713152 3 0 0
-0.057428 -1.002368 -15.718165 3 0 0
-0.061625 -1.002368 -15.718165 3 0 0
-0.065821 -1.002368 -15.718165 3 0 0
-0.070029 -1.002527 -15.720674 3 0 0
-0.074226 -1.002527 -15.720674 4 0 0
-0.078398 -1.002208 -15.715658 5 0 0
-0.082568 -1.001888 -15.710647 5 0 0
-0.086748 -1.001728 -15.708141 5 0 0
-0.090942 -1.001728 -15.708141 5 0 0
-0.095151 -1.001888 -15.710647 5 0 0
-0.099361 -1.002048 -15.713152 6 0 0
-0.103556 -1.002048 -15.713152 7 0 0
-0.107803 -1.002527 -15.720674 7 0 0
-0.112036 -1.002848 -15.725693 7 1 0
-0.116272 -1.003168 -15.730714 7 3 0
-0.120395 -1.002527 -15.720674 14 10 0
-0.124572 -1.002368 -15.718165 29 26 0
-0.128707 -1.001888 -15.710647 52 51 0
-0.132880 -1.001728 -15.708141 59 58 0
-0.691872 -1.493070 -23.412895 57 60 0
-0.698454 -1.493780 -23.424028 64 67 0
-0.704708 -1.493780 -23.424028 69 72 0
-0.730055 -1.533896 -24.053091 70 73 0
-0.736477 -1.533896 -24.053091 68 71 0
-0.742899 -1.533896 -24.053091 67 70 0
-0.749321 -1.533896 -24.053091 66 70 0
-0.754766 -1.506315 -23.620586 68 72 0
-0.759252 -1.502712 -23.564091 67 71 0
-0.763534 -1.498769 -23.502258 68 71 0
-0.767429 -1.494135 -23.429600 68 71 0
-0.773132 -1.493070 -23.412895 69 72 0
-0.776615 -1.487767 -23.329733 69 73 0
-0.917556 -1.307019 -20.495415 65 75 0
-0.923412 -1.307563 -20.503946 68 77 0
-0.941599 -1.310017 -20.542423 61 71 0
-0.947083 -1.310017 -20.542423 57 67 0
0.495667 -0.853394 -13.326317 0 0 0
0.493110 -0.855129 -13.353411 0 0 0
0.311761 -1.006243 -15.713152 1 0 0
0.307370 -1.005601 -15.703135 1 0 0
0.303129 -1.005441 -15.700631 1 0 0
0.298938 -1.005441 -15.700631 1 0 0
0.294840 -1.005762 -15.705637 0 0 0
0.290693 -1.005922 -15.708141 0 0 0
0.286454 -1.005762 -15.705637 0 0 0
0.282260 -1.005762 -15.705637 0 0 0
0.206883 -1.006243 -15.713152 3 0 0
0.202688 -1.006243 -15.713152 3 0 0
0.198493 -1.006243 -15.713152 3 0 0
0.194329 -1.006403 -15.715658 3 0 0
0.190163 -1.006564 -15.718165 3 0 0
0.185907 -1.006243 -15.713152 3 0 0
0.181625 -1.005762 -15.705637 3 0 0
0.177319 -1.005121 -15.695629 3 0 0
0.173129 -1.005121 -15.695629 3 0 0
0.169019 -1.005601 -15.703135 3 0 0
0.164879 -1.005922 -15.708141 3 0 0
0.161225 -1.009301 -15.760912 3 0 0
0.157017 -1.009301 -15.760912 3 0 0
0.152639 -1.008173 -15.743282 3 0 0
0.148341 -1.007529 -15.733227 3 0 0
0.144140 -1.007529 -15.733227 3 0 0
0.139940 -1.007529 -15.733227 3 0 0
0.135739 -1.007529 -15.733227 3 0 0
0.131518 -1.007368 -15.730714 2 0 0
0.127237 -1.006725 -15.720674 2 0 0
0.122961 -1.006083 -15.710647 2 0 0
0.118842 -1.006725 -15.720674 1 0 0
0.114737 -1.007529 -15.733227 1 0 0
0.110536 -1.007529 -15.733227 1 0 0
0.106268 -1.006885 -15.723183 1 0 0
0.101989 -1.006083 -15.710647 1 0 0
0.097747 -1.005601 -15.703135 1 0 0
0.093555 -1.005601 -15.703135 1 0 0
0.089391 -1.005922 -15.708141 1 0 0
0.085197 -1.005922 -15.708141 2 0 0
0.081029 -1.006243 -15.713152 2 0 0
0.076846 -1.006403 -15.715658 2 0 0
0.072662 -1.006564 -15.718165 2 0 0
0.068477 -1.006725 -15.720674 2 0 0
0.064331 -1.007529 -15.733227 2 0 0
0.060130 -1.007529 -15.733227 3 0 0
0.055903 -1.007046 -15.725693 3 0 0
0.051696 -1.006885 -15.723183 3 0 0
0.047499 -1.006885 -15.723183 3 0 0
0.043280 -1.006403 -15.715658 3 0 0
0.039066 -1.005922 -15.708141 3 0 0
0.034861 -1.005601 -15.703135 3 0 0
0.022326 -1.007529 -15.733227 4 0 0
0.018105 -1.006403 -15.715658 4 0 0
0.013909 -1.006403 -15.715658 4 0 0
0.009709 -1.005922 -15.708141 4 0 0
0.005514 -1.005762 -15.705637 4 0 0
0.001321 -1.005762 -15.705637 4 0 0
-0.002872 -1.005762 -15.705637 4 0 0
-0.007066 -1.005922 -15.708141 4 0 0
-0.011260 -1.005922 -15.708141 4 0 0
-0.015451 -1.005762 -15.705637 3 0 0
-0.019644 -1.005762 -15.705637 3 0 0
-0.023834 -1.005601 -15.703135 3 0 0
-0.028031 -1.005762 -15.705637 3 0 0
-0.032234 -1.006083 -15.710647 3 0 0
-0.036429 -1.006083 -15.710647 3 0 0
-0.040636 -1.006403 -15.715658 3 0 0
-0.044832 -1.006403 -15.715658 3 0 0
-0.049020 -1.006243 -15.713152 3 0 0
-0.053198 -1.005922 -15.708141 3 0 0
-0.057392 -1.005922 -15.708141 3 0 0
-0.061585 -1.005922 -15.708141 3 0 0
