ply
format ascii 1.0
element vertex 1197
property float x
property float y
property float z
property uchar red
property uchar green
property uchar blue
end_header
55.881748 -1.508944 70.838638 179 173 167
56.815853 -1.509965 70.886597 95 94 90
56.642399 -1.504871 70.647438 95 94 90
56.622421 -1.503856 70.599800 95 94 90
56.640636 -1.503856 70.599800 95 95 91
56.582546 -1.501831 70.504715 95 95 91
56.524612 -1.499811 70.409889 96 95 91
56.542782 -1.499811 70.409889 96 96 91
56.599010 -1.500820 70.457275 96 96 90
56.579117 -1.499811 70.409889 96 96 90
56.559250 -1.498803 70.362572 96 97 90
56.577408 -1.498803 70.362572 96 97 90
56.633621 -1.499811 70.409889 96 97 90
56.651791 -1.499811 70.409889 96 97 90
56.669960 -1.499811 70.409889 96 97 90
56.650032 -1.498803 70.362572 96 97 90
56.668186 -1.498803 70.362572 96 97 90
56.686344 -1.498803 70.362572 96 97 90
56.704498 -1.498803 70.362572 96 97 90
56.722656 -1.498803 70.362572 96 97 90
56.740810 -1.498803 70.362572 96 97 90
56.758968 -1.498803 70.362572 96 97 90
56.777122 -1.498803 70.362572 97 98 91
56.795280 -1.498803 70.362572 97 98 91
56.813435 -1.498803 70.362572 95 94 87
57.376629 -1.482858 69.614037 186 178 172
57.394592 -1.482858 69.614037 186 178 172
57.484406 -1.482858 69.614037 189 181 175
57.502369 -1.482858 69.614037 192 184 178
57.178059 -1.433303 67.287598 184 179 170
57.048763 -1.429628 67.115067 184 179 170
57.066082 -1.429628 67.115067 183 178 171
70.209755 -2.151565 102.245613 0 0 0
51.437904 -1.513189 71.909004 172 170 164
51.456459 -1.513189 71.909004 171 169 163
51.475014 -1.513189 71.909004 171 169 162
51.493568 -1.513189 71.909004 171 168 162
51.512127 -1.513189 71.909004 170 167 161
51.566097 -1.514229 71.958427 169 166 160
52.013641 -1.526821 72.556831 171 167 162
51.412827 -1.495725 71.079094 90 89 89
51.431168 -1.495725 71.079094 90 89 89
51.695175 -1.502867 71.418488 92 89 91
52.033043 -1.512150 71.859650 92 88 91
51.980232 -1.510077 71.761139 92 88 91
51.927567 -1.508010 71.662910 91 87 90
51.946056 -1.508010 71.662910 91 87 89
51.929005 -1.506979 71.613892 91 87 90
51.983040 -1.508010 71.662910 92 88 90
52.001534 -1.508010 71.662910 91 87 89
51.984444 -1.506979 71.613892 91 87 89
51.967377 -1.505949 71.564941 91 87 89
51.914871 -1.503893 71.467239 91 87 89
51.933315 -1.503893 71.467239 91 87 89
51.880928 -1.501842 71.369804 91 87 89
51.828686 -1.499798 71.272636 91 87 89
51.811806 -1.498777 71.224152 91 87 89
51.830185 -1.498777 71.224152 91 87 89
51.813316 -1.497758 71.175735 91 87 89
51.831680 -1.497758 71.175735 91 87 88
52.552227 -1.512150 71.859650 91 88 84
52.498707 -1.510077 71.761139 90 88 84
52.517223 -1.510077 71.761139 89 88 84
52.499756 -1.509043 71.711990 90 89 85
52.482315 -1.508010 71.662910 90 89 85
52.464897 -1.506979 71.613892 90 89 85
52.447502 -1.505949 71.564941 90 89 85
52.394341 -1.503893 71.467239 89 88 84
52.412785 -1.503893 71.467239 89 88 85
52.395458 -1.502867 71.418488 90 89 85
52.485493 -1.504920 71.516060 90 89 85
52.756195 -1.512150 71.859650 91 89 85
52.810982 -1.513189 71.909004 92 88 85
52.829540 -1.513189 71.909004 92 88 85
52.848095 -1.513189 71.909004 93 89 86
52.866650 -1.513189 71.909004 96 93 88
52.885204 -1.513189 71.909004 98 95 89
52.903759 -1.513189 71.909004 97 94 88
54.769726 -1.496741 71.127380 15 229 13
54.788078 -1.496741 71.127380 14 232 12
54.806431 -1.496741 71.127380 15 231 13
54.824783 -1.496741 71.127380 15 230 13
54.843140 -1.496741 71.127380 16 228 14
56.633747 -1.535333 72.961327 179 173 167
56.495094 -1.531065 72.758514 180 173 169
56.513870 -1.531065 72.758514 180 173 169
56.532642 -1.531065 72.758514 180 174 169
56.590744 -1.532130 72.809113 179 174 169
56.886448 -1.539624 73.165276 179 174 169
56.905327 -1.539624 73.165276 179 174 169
56.924206 -1.539624 73.165276 178 174 169
57.102703 -1.543940 73.370361 179 174 169
55.922138 -1.493697 70.982719 180 175 168
55.902557 -1.492685 70.934624 181 176 170
55.882999 -1.491674 70.886597 182 177 171
55.863468 -1.490665 70.838638 182 177 172
55.543526 -1.481643 70.409889 183 178 173
55.561691 -1.481643 70.409889 184 179 174
56.624168 -1.486641 70.647438 97 96 92
56.527969 -1.483638 70.504715 97 96 91
56.546162 -1.483638 70.504715 96 95 91
56.564354 -1.483638 70.504715 96 95 91
56.544472 -1.482640 70.457275 96 95 91
56.524612 -1.481643 70.409889 97 96 90
56.542782 -1.481643 70.409889 97 97 90
56.560947 -1.481643 70.409889 96 96 89
56.579117 -1.481643 70.409889 96 96 89
56.559250 -1.480647 70.362572 96 97 90
56.577408 -1.480647 70.362572 96 97 90
56.633621 -1.481643 70.409889 96 97 90
56.651791 -1.481643 70.409889 96 97 90
56.669960 -1.481643 70.409889 96 97 90
56.650032 -1.480647 70.362572 96 97 90
56.668186 -1.480647 70.362572 96 97 90
56.686344 -1.480647 70.362572 96 97 90
56.704498 -1.480647 70.362572 96 97 90
56.722656 -1.480647 70.362572 96 97 90
56.740810 -1.480647 70.362572 96 97 90
56.758968 -1.480647 70.362572 97 98 91
56.777122 -1.480647 70.362572 97 98 91
56.795280 -1.480647 70.362572 97 98 91
56.813435 -1.480647 70.362572 96 94 88
57.358665 -1.464895 69.614037 186 178 172
57.376629 -1.464895 69.614037 186 178 172
57.394592 -1.464895 69.614037 185 177 171
57.484406 -1.464895 69.614037 184 176 170
57.502369 -1.464895 69.614037 184 176 170
57.251644 -1.417762 67.374199 184 179 170
57.121998 -1.414122 67.201225 184 179 170
57.139339 -1.414122 67.201225 184 179 171
70.209755 -2.125182 102.245613 0 0 0
51.437904 -1.494634 71.909004 172 172 165
51.421143 -1.493608 71.859650 171 171 164
51.475014 -1.494634 71.909004 170 170 163
51.493568 -1.494634 71.909004 171 168 162
51.512127 -1.494634 71.909004 171 168 162
51.566097 -1.495661 71.958427 172 169 163
52.013641 -1.508099 72.556831 172 168 163
51.412827 -1.477384 71.079094 90 89 89
51.431168 -1.477384 71.079094 90 89 89
51.695175 -1.484438 71.418488 92 90 90
52.015884 -1.492583 71.810364 92 89 89
51.998749 -1.491560 71.761139 91 88 89
51.981636 -1.490539 71.711990 91 87 88
52.000141 -1.490539 71.711990 92 88 89
52.054298 -1.491560 71.761139 92 88 89
52.108532 -1.492583 71.810364 91 88 89
52.091335 -1.491560 71.761139 90 88 89
52.002922 -1.488500 71.613892 91 88 89
51.985844 -1.487482 71.564941 91 88 89
52.022778 -1.487482 71.564941 91 87 88
52.005695 -1.486466 71.516060 91 87 89
51.847076 -1.481407 71.272636 91 87 89
51.830185 -1.480399 71.224152 91 87 89
51.813316 -1.479393 71.175735 91 87 89
51.831680 -1.479393 71.175735 91 87 88
52.588322 -1.494634 71.909004 93 88 85
52.462749 -1.490539 71.711990 92 88 85
52.481255 -1.490539 71.711990 90 87 84
52.463825 -1.489518 71.662910 91 88 85
52.446419 -1.488500 71.613892 91 89 85
52.429035 -1.487482 71.564941 90 89 85
52.375900 -1.485451 71.467239 90 89 85
52.358601 -1.484438 71.418488 90 89 85
52.377029 -1.484438 71.418488 89 88 84
52.359745 -1.483426 71.369804 90 89 85
52.449665 -1.485451 71.467239 91 90 86
52.756195 -1.493608 71.859650 92 90 86
52.810982 -1.494634 71.909004 93 89 86
52.829540 -1.494634 71.909004 93 89 86
52.848095 -1.494634 71.909004 94 90 87
52.866650 -1.494634 71.909004 97 93 88
52.885204 -1.494634 71.909004 99 95 89
52.903759 -1.494634 71.909004 99 95 89
54.769726 -1.478387 71.127380 46 179 41
54.788078 -1.478387 71.127380 53 167 49
54.806431 -1.478387 71.127380 60 157 54
54.824783 -1.478387 71.127380 64 149 57
54.843140 -1.478387 71.127380 67 142 60
56.573723 -1.514396 72.859779 178 173 168
56.435432 -1.510192 72.657532 179 174 169
56.493385 -1.511241 72.707993 179 174 169
56.590744 -1.513342 72.809113 178 175 169
55.416348 -1.463474 70.409889 182 177 170
55.397263 -1.462491 70.362572 182 177 171
55.527367 -1.465445 70.504715 181 176 170
55.658001 -1.468412 70.647438 180 175 169
55.789162 -1.471390 70.790741 180 176 170
55.845188 -1.472386 70.838638 181 177 172
55.600140 -1.465445 70.504715 183 179 174
55.543526 -1.463474 70.409889 185 181 176
55.561691 -1.463474 70.409889 187 183 177
56.585987 -1.467422 70.599800 97 97 90
56.527969 -1.465445 70.504715 97 96 90
56.546162 -1.465445 70.504715 96 96 89
56.564354 -1.465445 70.504715 96 96 90
56.506443 -1.463474 70.409889 97 97 90
56.524612 -1.463474 70.409889 96 96 90
56.542782 -1.463474 70.409889 96 96 89
56.599010 -1.464459 70.457275 96 96 89
56.617191 -1.464459 70.457275 96 96 89
56.597286 -1.463474 70.409889 95 96 89
56.615456 -1.463474 70.409889 95 96 89
56.671734 -1.464459 70.457275 96 97 90
56.689915 -1.464459 70.457275 96 97 90
56.669960 -1.463474 70.409889 95 96 89
56.688126 -1.463474 70.409889 96 97 90
56.668186 -1.462491 70.362572 96 97 90
56.686344 -1.462491 70.362572 96 97 90
56.704498 -1.462491 70.362572 96 97 90
56.722656 -1.462491 70.362572 96 97 90
56.740810 -1.462491 70.362572 97 97 90
56.758968 -1.462491 70.362572 98 98 91
56.777122 -1.462491 70.362572 98 98 91
56.795280 -1.462491 70.362572 98 98 91
56.813435 -1.462491 70.362572 96 93 87
57.358665 -1.446932 69.614037 186 178 173
57.376629 -1.446932 69.614037 186 178 173
57.394592 -1.446932 69.614037 185 178 173
57.484406 -1.446932 69.614037 184 178 172
57.502369 -1.446932 69.614037 184 178 173
57.325424 -1.402182 67.461021 183 178 170
57.158684 -1.397679 67.244385 184 179 171
57.176037 -1.397679 67.244385 184 179 172
70.209755 -2.098799 102.245613 0 0 0
51.402599 -1.475065 71.859650 171 169 163
51.421143 -1.475065 71.859650 171 169 162
51.439686 -1.475065 71.859650 171 168 162
51.458229 -1.475065 71.859650 171 168 162
51.512127 -1.476078 71.909004 171 168 162
51.530682 -1.476078 71.909004 171 168 162
51.447754 -1.460034 71.127380 91 90 88
51.501095 -1.461027 71.175735 91 90 88
52.034412 -1.474054 71.810364 91 89 85
52.017265 -1.473043 71.761139 91 87 84
52.071472 -1.474054 71.810364 92 88 85
52.125755 -1.475065 71.859650 92 89 86
52.041241 -1.469016 71.564941 91 87 86
52.024147 -1.468012 71.516060 91 87 87
51.865467 -1.463016 71.272636 91 87 87
51.848560 -1.462021 71.224152 91 87 87
51.866940 -1.462021 71.224152 91 87 87
52.588322 -1.476078 71.909004 93 89 85
52.462749 -1.472034 71.711990 92 89 85
52.445332 -1.471027 71.662910 91 88 84
52.427937 -1.470021 71.613892 91 88 84
52.410568 -1.469016 71.564941 91 88 84
52.321747 -1.466010 71.418488 90 89 85
52.340172 -1.466010 71.418488 90 89 85
52.322910 -1.465010 71.369804 90 89 85
52.341328 -1.465010 71.369804 90 89 84
52.359745 -1.465010 71.369804 90 89 84
52.413887 -1.466010 71.418488 91 90 85
52.756195 -1.475065 71.859650 92 90 86
52.810982 -1.476078 71.909004 92 90 85
52.829540 -1.476078 71.909004 93 91 86
52.848095 -1.476078 71.909004 94 92 87
52.866650 -1.476078 71.909004 95 92 86
52.885204 -1.476078 71.909004 96 93 87
52.903759 -1.476078 71.909004 98 95 89
54.769726 -1.460034 71.127380 78 128 71
54.788078 -1.460034 71.127380 82 122 75
54.806431 -1.460034 71.127380 86 115 78
54.824783 -1.460034 71.127380 87 110 79
54.843140 -1.460034 71.127380 89 104 80
56.396294 -1.490409 72.607147 179 174 167
56.415031 -1.490409 72.607147 179 174 168
55.435459 -1.446279 70.457275 182 177 170
55.416348 -1.445306 70.409889 182 177 171
55.397263 -1.444335 70.362572 181 178 172
55.415417 -1.444335 70.362572 180 177 171
55.545559 -1.447253 70.504715 179 176 170
55.789162 -1.453124 70.790741 178 175 169
55.807430 -1.453124 70.790741 179 176 170
55.562721 -1.446279 70.457275 182 179 173
55.506199 -1.444335 70.362572 185 182 176
55.524353 -1.444335 70.362572 188 185 179
56.567768 -1.449204 70.599800 98 96 90
56.547855 -1.448228 70.552231 98 96 90
56.489929 -1.446279 70.457275 97 96 89
56.508110 -1.446279 70.457275 97 96 89
56.526291 -1.446279 70.457275 97 96 89
56.506443 -1.445306 70.409889 98 96 89
56.524612 -1.445306 70.409889 97 96 89
56.542782 -1.445306 70.409889 96 96 89
56.599010 -1.446279 70.457275 96 96 89
56.617191 -1.446279 70.457275 96 97 90
56.597286 -1.445306 70.409889 96 97 90
56.615456 -1.445306 70.409889 96 97 90
56.671734 -1.446279 70.457275 97 97 90
56.689915 -1.446279 70.457275 96 97 90
56.669960 -1.445306 70.409889 96 96 91
56.688126 -1.445306 70.409889 96 96 91
56.706295 -1.445306 70.409889 97 96 91
56.686344 -1.444335 70.362572 97 96 91
56.704498 -1.444335 70.362572 97 96 91
56.722656 -1.444335 70.362572 97 96 91
56.740810 -1.444335 70.362572 97 97 91
56.758968 -1.444335 70.362572 98 98 91
56.777122 -1.444335 70.362572 98 98 91
56.795280 -1.444335 70.362572 99 99 92
56.813435 -1.444335 70.362572 97 94 88
56.831593 -1.444335 70.362572 96 91 86
57.340702 -1.428970 69.614037 185 178 174
57.358665 -1.428970 69.614037 185 178 174
57.376629 -1.428970 69.614037 185 178 174
57.394592 -1.428970 69.614037 184 179 174
57.466442 -1.428970 69.614037 186 181 176
57.484406 -1.428970 69.614037 187 182 177
57.502369 -1.428970 69.614037 187 182 177
57.325424 -1.384775 67.461021 183 178 171
57.158684 -1.380328 67.244385 183 178 171
57.176037 -1.380328 67.244385 183 178 172
70.209755 -2.072416 102.245613 0 0 0
51.367344 -1.455524 71.810364 171 168 162
51.385876 -1.455524 71.810364 171 168 162
51.404404 -1.455524 71.810364 171 168 162
51.458229 -1.456523 71.859650 171 168 162
51.476768 -1.456523 71.859650 172 169 163
51.530682 -1.457523 71.909004 172 169 163
51.499371 -1.443642 71.224152 92 89 86
51.482727 -1.442661 71.175735 92 89 86
51.501095 -1.442661 71.175735 93 89 86
52.105888 -1.457523 71.909004 92 88 84
52.052944 -1.455524 71.810364 92 89 83
52.076839 -1.451542 71.613892 91 88 82
52.095318 -1.451542 71.613892 91 88 83
52.042603 -1.449559 71.516060 91 88 83
51.883858 -1.444625 71.272636 91 88 82
51.902248 -1.444625 71.272636 91 88 82
52.569767 -1.457523 71.909004 90 90 83
52.444244 -1.453530 71.711990 91 91 84
52.462749 -1.453530 71.711990 91 91 84
52.409458 -1.451542 71.613892 90 90 83
52.392101 -1.450549 71.564941 89 89 83
52.303318 -1.447581 71.418488 89 89 83
52.250462 -1.445609 71.321190 90 89 85
52.268864 -1.445609 71.321190 90 89 85
52.287270 -1.445609 71.321190 90 89 85
52.341328 -1.446594 71.369804 90 90 84
52.324078 -1.445609 71.321190 90 90 83
52.413887 -1.447581 71.418488 91 91 84
52.756195 -1.456523 71.859650 91 91 84
52.810982 -1.457523 71.909004 90 90 83
52.829540 -1.457523 71.909004 92 92 85
52.848095 -1.457523 71.909004 94 94 87
52.866650 -1.457523 71.909004 91 91 84
52.885204 -1.457523 71.909004 91 91 84
52.903759 -1.457523 71.909004 95 95 88
54.769726 -1.441681 71.127380 99 95 90
54.788078 -1.441681 71.127380 99 95 90
54.806431 -1.441681 71.127380 98 95 90
54.824783 -1.441681 71.127380 97 94 89
54.843140 -1.441681 71.127380 97 94 88
55.491966 -1.430023 70.552231 181 176 169
55.435459 -1.428098 70.457275 182 177 170
55.416348 -1.427138 70.409889 182 177 170
55.397263 -1.426179 70.362572 181 178 170
55.415417 -1.426179 70.362572 181 178 170
55.545559 -1.429060 70.504715 180 177 170
55.638687 -1.430987 70.599800 179 176 169
55.656906 -1.430987 70.599800 179 176 170
55.562721 -1.428098 70.457275 182 179 173
55.506199 -1.426179 70.362572 184 181 175
55.524353 -1.426179 70.362572 185 182 176
56.529652 -1.430023 70.552231 98 95 89
56.547855 -1.430023 70.552231 98 95 89
56.489929 -1.428098 70.457275 98 95 89
56.508110 -1.428098 70.457275 98 95 89
56.488277 -1.427138 70.409889 98 95 90
56.506443 -1.427138 70.409889 98 95 90
56.524612 -1.427138 70.409889 97 96 89
56.542782 -1.427138 70.409889 96 96 89
56.599010 -1.428098 70.457275 96 96 89
56.617191 -1.428098 70.457275 97 97 90
56.597286 -1.427138 70.409889 97 97 90
56.615456 -1.427138 70.409889 97 97 91
56.671734 -1.428098 70.457275 97 97 91
56.689915 -1.428098 70.457275 97 96 91
56.669960 -1.427138 70.409889 97 96 92
56.688126 -1.427138 70.409889 97 96 92
56.706295 -1.427138 70.409889 97 96 92
56.686344 -1.426179 70.362572 97 96 92
56.704498 -1.426179 70.362572 98 96 92
56.722656 -1.426179 70.362572 98 96 92
56.740810 -1.426179 70.362572 98 96 92
56.758968 -1.426179 70.362572 99 97 92
56.777122 -1.426179 70.362572 99 97 92
56.795280 -1.426179 70.362572 99 97 92
56.813435 -1.426179 70.362572 97 93 88
56.831593 -1.426179 70.362572 96 90 87
57.340702 -1.411007 69.614037 183 178 173
57.358665 -1.411007 69.614037 184 179 174
57.376629 -1.411007 69.614037 184 179 174
57.394592 -1.411007 69.614037 184 179 174
57.466442 -1.411007 69.614037 195 190 185
57.484406 -1.411007 69.614037 194 189 184
57.502369 -1.411007 69.614037 191 187 181
57.300575 -1.378917 68.030869 99 98 94
57.318130 -1.378917 68.030869 99 98 94
57.335686 -1.378917 68.030869 99 98 94
57.353237 -1.378917 68.030869 99 98 94
57.325424 -1.367367 67.461021 183 178 171
57.195419 -1.363852 67.287598 183 178 171
57.212784 -1.363852 67.287598 183 178 172
57.377647 -1.367367 67.461021 183 178 173
70.209755 -2.046033 102.245613 0 0 0
51.367344 -1.436994 71.810364 171 168 162
51.385876 -1.436994 71.810364 171 168 162
51.404404 -1.436994 71.810364 171 168 162
51.422935 -1.436994 71.810364 172 169 163
51.441463 -1.436994 71.810364 172 169 163
51.495312 -1.437981 71.859650 172 169 163
51.464363 -1.424295 71.175735 93 89 88
51.482727 -1.424295 71.175735 93 89 87
51.536129 -1.425264 71.224152 93 89 87
52.183918 -1.436009 71.761139 91 88 84
52.166679 -1.435026 71.711990 91 87 83
52.113796 -1.433063 71.613892 91 87 83
51.954590 -1.428178 71.369804 91 87 83
51.973007 -1.428178 71.369804 91 87 83
52.569767 -1.438968 71.909004 91 88 84
52.444244 -1.435026 71.711990 91 88 84
52.390980 -1.433063 71.613892 91 88 85
52.373634 -1.432083 71.564941 90 89 86
52.356316 -1.431105 71.516060 90 90 86
52.232059 -1.427205 71.321190 91 90 87
52.250462 -1.427205 71.321190 91 90 87
52.233284 -1.426234 71.272636 91 90 87
52.251675 -1.426234 71.272636 91 90 87
52.305672 -1.427205 71.321190 90 90 85
52.324078 -1.427205 71.321190 90 90 83
52.413887 -1.429152 71.418488 91 91 84
52.720013 -1.436994 71.810364 91 91 84
52.810982 -1.438968 71.909004 90 90 83
52.829540 -1.438968 71.909004 92 92 85
52.848095 -1.438968 71.909004 94 94 87
52.866650 -1.438968 71.909004 92 92 85
52.885204 -1.438968 71.909004 92 92 85
52.903759 -1.438968 71.909004 94 94 87
54.769726 -1.423327 71.127380 97 93 90
54.788078 -1.423327 71.127380 97 93 90
54.806431 -1.423327 71.127380 97 93 90
54.824783 -1.423327 71.127380 98 94 91
54.843140 -1.423327 71.127380 99 95 92
55.530392 -1.413723 70.647438 180 175 168
55.473759 -1.411818 70.552231 180 175 168
55.454597 -1.410867 70.504715 180 175 168
55.472790 -1.410867 70.504715 181 176 169
55.453640 -1.409918 70.457275 180 176 169
55.397263 -1.408023 70.362572 180 176 169
55.415417 -1.408023 70.362572 180 176 169
55.433575 -1.408023 70.362572 180 176 169
55.526360 -1.409918 70.457275 178 175 168
55.544540 -1.409918 70.457275 179 176 170
55.525356 -1.408970 70.409889 182 179 173
55.506199 -1.408023 70.362572 183 180 174
55.524353 -1.408023 70.362572 184 181 175
56.529652 -1.411818 70.552231 97 93 90
56.509777 -1.410867 70.504715 98 94 91
56.451939 -1.408970 70.409889 97 94 91
56.470108 -1.408970 70.409889 96 95 91
56.488277 -1.408970 70.409889 96 95 91
56.506443 -1.408970 70.409889 96 95 91
56.524612 -1.408970 70.409889 96 96 90
56.580830 -1.409918 70.457275 96 96 89
56.599010 -1.409918 70.457275 96 96 89
56.617191 -1.409918 70.457275 96 96 90
56.597286 -1.408970 70.409889 97 96 91
56.615456 -1.408970 70.409889 97 96 92
56.671734 -1.409918 70.457275 97 96 92
56.689915 -1.409918 70.457275 97 96 92
56.669960 -1.408970 70.409889 97 96 92
56.688126 -1.408970 70.409889 97 96 92
56.706295 -1.408970 70.409889 97 96 92
56.686344 -1.408023 70.362572 98 95 92
56.704498 -1.408023 70.362572 99 95 92
56.722656 -1.408023 70.362572 99 95 92
56.740810 -1.408023 70.362572 100 95 92
56.758968 -1.408023 70.362572 101 95 93
56.777122 -1.408023 70.362572 100 94 92
56.795280 -1.408023 70.362572 100 94 92
56.813435 -1.408023 70.362572 96 90 88
56.831593 -1.408023 70.362572 95 89 86
57.340702 -1.393044 69.614037 184 179 174
57.358665 -1.393044 69.614037 184 179 174
57.376629 -1.393044 69.614037 184 179 174
57.394592 -1.393044 69.614037 184 179 174
57.484406 -1.393044 69.614037 190 185 180
57.097519 -1.356954 67.810562 99 98 94
57.152031 -1.357834 67.854507 99 98 94
57.243740 -1.359596 67.942574 99 98 94
57.261272 -1.359596 67.942574 99 98 94
57.241657 -1.358714 67.898514 99 98 94
57.259178 -1.358714 67.898514 99 98 95
57.091576 -1.354323 67.679062 99 98 95
57.325424 -1.349960 67.461021 183 176 170
57.232201 -1.347355 67.330872 184 178 171
57.249577 -1.347355 67.330872 185 180 174
57.377647 -1.349960 67.461021 186 181 176
70.209755 -2.019650 102.245613 0 0 0
51.367344 -1.418465 71.810364 171 168 162
51.385876 -1.418465 71.810364 171 168 162
51.404404 -1.418465 71.810364 171 168 162
51.422935 -1.418465 71.810364 171 168 162
51.441463 -1.418465 71.810364 171 168 162
51.459995 -1.418465 71.810364 171 168 162
51.480995 -1.406885 71.224152 93 91 91
51.499371 -1.406885 71.224152 92 90 89
51.517750 -1.406885 71.224152 92 89 88
51.571213 -1.407843 71.272636 92 89 88
52.202435 -1.417492 71.761139 91 87 84
52.185184 -1.416522 71.711990 91 87 84
52.203690 -1.416522 71.711990 91 87 84
52.257988 -1.417492 71.761139 91 87 84
52.569767 -1.420413 71.909004 91 87 85
52.408348 -1.415552 71.662910 91 87 85
52.355171 -1.413617 71.564941 91 87 85
52.337860 -1.412651 71.516060 91 88 85
52.284889 -1.410724 71.418488 91 89 86
52.232059 -1.408802 71.321190 91 89 86
52.214893 -1.407843 71.272636 91 89 86
52.197750 -1.406885 71.224152 90 89 86
52.216129 -1.406885 71.224152 90 89 86
52.270065 -1.407843 71.272636 90 89 84
52.324078 -1.408802 71.321190 90 90 83
52.378159 -1.409762 71.369804 91 91 84
52.720013 -1.418465 71.810364 91 91 84
52.810982 -1.420413 71.909004 92 90 84
52.829540 -1.420413 71.909004 93 91 85
52.848095 -1.420413 71.909004 94 92 86
52.866650 -1.420413 71.909004 95 93 87
52.885204 -1.420413 71.909004 96 94 88
52.903759 -1.420413 71.909004 97 95 89
54.769726 -1.404974 71.127380 98 94 91
54.788078 -1.404974 71.127380 98 94 91
54.806431 -1.404974 71.127380 98 94 91
54.824783 -1.404974 71.127380 96 92 89
54.843140 -1.404974 71.127380 96 92 89
55.512165 -1.395494 70.647438 179 174 167
55.418209 -1.392674 70.504715 179 174 167
55.436405 -1.392674 70.504715 179 175 168
55.454597 -1.392674 70.504715 179 175 168
55.435459 -1.391737 70.457275 179 174 167
55.416348 -1.390801 70.409889 179 174 167
55.397263 -1.389866 70.362572 179 174 167
55.415417 -1.389866 70.362572 179 174 167
55.433575 -1.389866 70.362572 178 174 167
55.451729 -1.389866 70.362572 177 174 167
55.507187 -1.390801 70.409889 178 175 168
55.488041 -1.389866 70.362572 180 177 170
55.506199 -1.389866 70.362572 181 178 172
55.524353 -1.389866 70.362572 182 179 173
56.529652 -1.393613 70.552231 97 95 91
56.509777 -1.392674 70.504715 97 95 92
56.451939 -1.390801 70.409889 97 95 91
56.470108 -1.390801 70.409889 96 95 91
56.526291 -1.391737 70.457275 96 95 91
56.544472 -1.391737 70.457275 96 95 91
56.562653 -1.391737 70.457275 96 96 91
56.580830 -1.391737 70.457275 97 96 91
56.599010 -1.391737 70.457275 97 96 91
56.617191 -1.391737 70.457275 97 96 91
56.597286 -1.390801 70.409889 96 95 91
56.615456 -1.390801 70.409889 97 96 92
56.671734 -1.391737 70.457275 97 96 92
56.689915 -1.391737 70.457275 97 96 91
56.669960 -1.390801 70.409889 97 97 91
56.688126 -1.390801 70.409889 97 97 91
56.706295 -1.390801 70.409889 97 96 91
56.686344 -1.389866 70.362572 98 95 91
56.704498 -1.389866 70.362572 99 94 91
56.722656 -1.389866 70.362572 100 94 92
56.740810 -1.389866 70.362572 100 94 92
56.758968 -1.389866 70.362572 100 94 92
56.777122 -1.389866 70.362572 98 92 90
56.795280 -1.389866 70.362572 96 90 88
56.813435 -1.389866 70.362572 94 88 85
57.358665 -1.375081 69.614037 183 178 173
57.376629 -1.375081 69.614037 183 178 173
57.394592 -1.375081 69.614037 183 178 172
56.969330 -1.336859 67.679062 99 98 94
56.949982 -1.335996 67.635338 100 99 95
57.004257 -1.336859 67.679062 101 100 96
57.095535 -1.338590 67.766670 99 98 94
57.113022 -1.338590 67.766670 99 98 94
57.056648 -1.336859 67.679062 101 100 96
57.000420 -1.335133 67.591675 101 100 97
56.981075 -1.334272 67.548065 100 99 98
57.035301 -1.335133 67.591675 100 99 98
57.325424 -1.332552 67.461021 183 175 169
57.269032 -1.330837 67.374199 184 177 171
57.286415 -1.330837 67.374199 187 181 176
57.377647 -1.332552 67.461021 188 183 178
70.209755 -1.993267 102.245613 0 0 0
51.367344 -1.399935 71.810364 171 168 162
51.385876 -1.399935 71.810364 171 168 162
51.404404 -1.399935 71.810364 171 168 162
51.387688 -1.398975 71.761139 172 167 162
51.406204 -1.398975 71.761139 172 167 162
51.459995 -1.399935 71.810364 171 166 161
51.516037 -1.389452 71.272636 92 89 86
51.534431 -1.389452 71.272636 88 87 87
51.517750 -1.388507 71.224152 88 88 88
51.571213 -1.389452 71.272636 89 89 89
52.050224 -1.401858 71.909004 90 89 88
52.087334 -1.401858 71.909004 90 89 87
52.105888 -1.401858 71.909004 91 89 86
52.220951 -1.398975 71.761139 91 87 84
52.239468 -1.398975 71.761139 91 87 84
52.329720 -1.400896 71.859650 91 87 84
52.533688 -1.400896 71.859650 91 87 86
52.372501 -1.396105 71.613892 91 87 86
52.319408 -1.394197 71.516060 91 87 86
52.302135 -1.393246 71.467239 91 87 85
52.249249 -1.391346 71.369804 92 88 86
52.196503 -1.389452 71.272636 91 88 86
52.179375 -1.388507 71.224152 91 88 86
52.197750 -1.388507 71.224152 90 88 86
52.216129 -1.388507 71.224152 90 88 85
52.234509 -1.388507 71.224152 90 89 85
52.288456 -1.389452 71.272636 91 90 85
52.342480 -1.390399 71.321190 91 90 86
52.720013 -1.399935 71.810364 92 90 86
52.810982 -1.401858 71.909004 93 90 86
52.829540 -1.401858 71.909004 94 91 86
52.848095 -1.401858 71.909004 95 91 87
52.866650 -1.401858 71.909004 95 91 86
52.885204 -1.401858 71.909004 95 92 86
52.903759 -1.401858 71.909004 98 95 89
54.769726 -1.386620 71.127380 97 93 90
54.788078 -1.386620 71.127380 98 94 91
54.806431 -1.386620 71.127380 98 94 91
54.824783 -1.386620 71.127380 95 90 87
54.843140 -1.386620 71.127380 94 89 87
55.400017 -1.374482 70.504715 178 175 167
55.306480 -1.371710 70.362572 178 175 167
55.361843 -1.372633 70.409889 178 175 167
55.380009 -1.372633 70.409889 178 175 167
55.398178 -1.372633 70.409889 177 174 166
55.379105 -1.371710 70.362572 177 174 166
55.397263 -1.371710 70.362572 177 174 166
55.415417 -1.371710 70.362572 177 174 166
55.433575 -1.371710 70.362572 177 174 166
55.451729 -1.371710 70.362572 177 174 166
55.469887 -1.371710 70.362572 177 174 166
55.488041 -1.371710 70.362572 176 173 165
55.506199 -1.371710 70.362572 176 173 166
55.524353 -1.371710 70.362572 178 175 169
56.473392 -1.374482 70.504715 97 96 91
56.491585 -1.374482 70.504715 97 96 91
56.471748 -1.373557 70.457275 97 96 91
56.451939 -1.372633 70.409889 97 96 91
56.470108 -1.372633 70.409889 96 96 91
56.526291 -1.373557 70.457275 96 96 91
56.544472 -1.373557 70.457275 96 96 91
56.562653 -1.373557 70.457275 97 96 91
56.580830 -1.373557 70.457275 97 96 91
56.599010 -1.373557 70.457275 97 96 91
56.617191 -1.373557 70.457275 97 96 91
56.597286 -1.372633 70.409889 97 96 91
56.615456 -1.372633 70.409889 97 96 91
56.671734 -1.373557 70.457275 97 96 91
56.689915 -1.373557 70.457275 97 96 91
56.669960 -1.372633 70.409889 97 97 91
56.688126 -1.372633 70.409889 97 97 91
56.706295 -1.372633 70.409889 97 96 91
56.686344 -1.371710 70.362572 98 95 91
56.704498 -1.371710 70.362572 98 95 92
56.722656 -1.371710 70.362572 98 95 92
56.740810 -1.371710 70.362572 99 95 92
56.758968 -1.371710 70.362572 99 95 92
56.777122 -1.371710 70.362572 99 94 91
56.795280 -1.371710 70.362572 98 93 91
56.813435 -1.371710 70.362572 95 89 87
57.358665 -1.357118 69.614037 182 177 172
57.376629 -1.357118 69.614037 182 177 172
57.394592 -1.357118 69.614037 182 177 170
56.895775 -1.317692 67.591675 99 98 94
56.913216 -1.317692 67.591675 99 98 94
56.967434 -1.318543 67.635338 100 99 95
57.021721 -1.319396 67.679062 99 98 94
57.039185 -1.319396 67.679062 98 98 94
56.982979 -1.317692 67.591675 99 99 95
57.000420 -1.317692 67.591675 100 99 96
56.981075 -1.316842 67.548065 100 99 97
56.998505 -1.316842 67.548065 100 99 98
57.325424 -1.315145 67.461021 181 176 169
57.305908 -1.314298 67.417580 181 176 169
57.323303 -1.314298 67.417580 182 177 170
57.377647 -1.315145 67.461021 183 178 172
70.209755 -1.966884 102.245613 0 0 0
51.367344 -1.381405 71.810364 171 168 162
51.350655 -1.380458 71.761139 171 168 162
51.369171 -1.380458 71.761139 171 168 162
51.387688 -1.380458 71.761139 171 167 162
51.406204 -1.380458 71.761139 171 167 161
51.459995 -1.381405 71.810364 170 167 161
51.534431 -1.371061 71.272636 90 89 89
51.517750 -1.370129 71.224152 89 89 89
51.571213 -1.371061 71.272636 90 89 89
52.050224 -1.383303 71.909004 91 89 89
52.068779 -1.383303 71.909004 92 88 89
52.087334 -1.383303 71.909004 92 89 89
52.105888 -1.383303 71.909004 93 89 89
52.347107 -1.383303 71.909004 90 86 83
52.533688 -1.382353 71.859650 91 87 88
52.300953 -1.375744 71.516060 90 86 87
52.248032 -1.373867 71.418488 91 87 88
52.266460 -1.373867 71.418488 92 88 89
52.249249 -1.372930 71.369804 91 87 88
52.196503 -1.371061 71.272636 91 87 88
52.179375 -1.370129 71.224152 91 87 88
52.197750 -1.370129 71.224152 91 87 88
52.216129 -1.370129 71.224152 91 87 88
52.234509 -1.370129 71.224152 92 88 89
52.252888 -1.370129 71.224152 92 88 89
52.306847 -1.371061 71.272636 93 89 90
52.720013 -1.381405 71.810364 93 89 90
52.810982 -1.383303 71.909004 94 90 89
52.829540 -1.383303 71.909004 95 91 90
52.848095 -1.383303 71.909004 95 91 90
52.866650 -1.383303 71.909004 90 86 82
52.885204 -1.383303 71.909004 89 86 80
52.903759 -1.383303 71.909004 94 91 86
54.769726 -1.368267 71.127380 96 92 89
54.788078 -1.368267 71.127380 97 94 91
54.806431 -1.368267 71.127380 98 94 91
54.824783 -1.368267 71.127380 94 89 87
54.843140 -1.368267 71.127380 93 88 85
55.456512 -1.358118 70.599800 179 175 167
55.288322 -1.353554 70.362572 179 175 167
55.306480 -1.353554 70.362572 179 174 167
55.324635 -1.353554 70.362572 179 174 167
55.342793 -1.353554 70.362572 178 174 167
55.360947 -1.353554 70.362572 178 174 166
55.379105 -1.353554 70.362572 178 173 166
55.397263 -1.353554 70.362572 178 173 166
55.415417 -1.353554 70.362572 178 173 166
55.433575 -1.353554 70.362572 178 173 166
55.451729 -1.353554 70.362572 177 174 166
55.469887 -1.353554 70.362572 178 175 167
55.488041 -1.353554 70.362572 179 176 168
55.506199 -1.353554 70.362572 180 177 169
55.524353 -1.353554 70.362572 182 179 172
56.431736 -1.363635 70.886597 95 94 90
56.450027 -1.363635 70.886597 95 94 90
56.506577 -1.364559 70.934624 95 94 90
56.563202 -1.365484 70.982719 96 95 91
56.438625 -1.357203 70.552231 96 95 91
56.456829 -1.357203 70.552231 97 96 92
56.475037 -1.357203 70.552231 97 96 92
56.493240 -1.357203 70.552231 97 96 92
56.435387 -1.355376 70.457275 97 97 91
56.491585 -1.356289 70.504715 97 97 90
56.471748 -1.355376 70.457275 97 97 90
56.489929 -1.355376 70.457275 97 97 90
56.508110 -1.355376 70.457275 97 97 90
56.564354 -1.356289 70.504715 97 97 90
56.544472 -1.355376 70.457275 97 97 90
56.562653 -1.355376 70.457275 96 97 90
56.580830 -1.355376 70.457275 96 96 89
56.637127 -1.356289 70.504715 97 97 90
56.617191 -1.355376 70.457275 97 97 90
56.635372 -1.355376 70.457275 97 97 90
56.653553 -1.355376 70.457275 97 97 90
56.671734 -1.355376 70.457275 97 97 90
56.689915 -1.355376 70.457275 97 97 91
56.708096 -1.355376 70.457275 97 96 92
56.688126 -1.354465 70.409889 97 96 92
56.706295 -1.354465 70.409889 97 96 92
56.686344 -1.353554 70.362572 97 96 93
56.704498 -1.353554 70.362572 97 96 93
56.722656 -1.353554 70.362572 97 96 93
56.740810 -1.353554 70.362572 98 96 93
56.758968 -1.353554 70.362572 99 95 92
56.777122 -1.353554 70.362572 100 96 93
56.795280 -1.353554 70.362572 101 97 94
57.340702 -1.339155 69.614037 182 177 171
57.358665 -1.339155 69.614037 182 177 171
57.376629 -1.339155 69.614037 182 177 170
57.394592 -1.339155 69.614037 182 177 170
56.969330 -1.301932 67.679062 99 98 94
56.949982 -1.301091 67.635338 99 98 94
57.004257 -1.301932 67.679062 99 98 94
57.021721 -1.301932 67.679062 98 98 94
57.002338 -1.301091 67.635338 98 98 94
56.982979 -1.300251 67.591675 98 98 94
57.000420 -1.300251 67.591675 99 99 95
56.981075 -1.299412 67.548065 100 100 97
56.961758 -1.298574 67.504517 100 100 97
56.942463 -1.297738 67.461021 100 100 97
57.308018 -1.297738 67.461021 183 176 170
57.325424 -1.297738 67.461021 182 175 169
57.305908 -1.296902 67.417580 181 175 168
57.323303 -1.296902 67.417580 181 175 168
57.377647 -1.297738 67.461021 181 176 169
70.209755 -1.940501 102.245613 0 0 0
51.332138 -1.361941 71.761139 171 168 162
51.315483 -1.361009 71.711990 171 168 162
51.333988 -1.361009 71.711990 171 168 161
51.352493 -1.361009 71.711990 170 167 161
51.370995 -1.361009 71.711990 170 167 160
51.459995 -1.362876 71.810364 170 167 160
51.534431 -1.352670 71.272636 90 89 89
51.517750 -1.351750 71.224152 90 89 89
51.571213 -1.352670 71.272636 90 89 89
52.087334 -1.364748 71.909004 91 89 90
52.105888 -1.364748 71.909004 91 89 90
52.124443 -1.364748 71.909004 91 88 89
52.533688 -1.363811 71.859650 91 87 85
52.300953 -1.357290 71.516060 91 87 85
52.212414 -1.354514 71.369804 91 87 86
52.266460 -1.355438 71.418488 91 87 87
52.249249 -1.354514 71.369804 91 87 87
52.196503 -1.352670 71.272636 91 87 87
52.179375 -1.351750 71.224152 91 87 88
52.197750 -1.351750 71.224152 91 87 88
52.216129 -1.351750 71.224152 92 88 89
52.234509 -1.351750 71.224152 92 88 89
52.252888 -1.351750 71.224152 93 89 90
52.306847 -1.352670 71.272636 92 88 89
52.683876 -1.361941 71.761139 92 88 89
52.810982 -1.364748 71.909004 92 88 88
52.829540 -1.364748 71.909004 93 89 89
52.848095 -1.364748 71.909004 93 89 89
52.866650 -1.364748 71.909004 85 81 82
52.885204 -1.364748 71.909004 83 79 79
52.903759 -1.364748 71.909004 86 83 83
54.751373 -1.349913 71.127380 96 94 92
54.769726 -1.349913 71.127380 95 94 90
54.788078 -1.349913 71.127380 96 95 91
54.806431 -1.349913 71.127380 97 95 91
54.824783 -1.349913 71.127380 94 91 88
55.645210 -1.345344 70.886597 180 175 168
55.438297 -1.339901 70.599800 179 174 168
55.270168 -1.335398 70.362572 179 174 167
55.288322 -1.335398 70.362572 179 174 167
55.306480 -1.335398 70.362572 179 174 167
55.324635 -1.335398 70.362572 179 174 167
55.342793 -1.335398 70.362572 178 173 166
55.360947 -1.335398 70.362572 178 173 166
55.379105 -1.335398 70.362572 178 173 166
55.360058 -1.334501 70.315315 178 173 165
55.378201 -1.334501 70.315315 178 173 165
55.433575 -1.335398 70.362572 178 173 165
55.451729 -1.335398 70.362572 178 174 165
55.469887 -1.335398 70.362572 178 175 165
55.488041 -1.335398 70.362572 180 176 167
55.506199 -1.335398 70.362572 182 178 169
55.524353 -1.335398 70.362572 184 180 172
56.393555 -1.344433 70.838638 94 94 90
56.411835 -1.344433 70.838638 95 94 90
56.430115 -1.344433 70.838638 95 95 91
56.448395 -1.344433 70.838638 95 95 91
56.466671 -1.344433 70.838638 95 95 91
56.332497 -1.340805 70.647438 95 95 91
56.274780 -1.338998 70.552231 95 95 91
56.292984 -1.338998 70.552231 95 95 91
56.311192 -1.338998 70.552231 95 95 91
56.367378 -1.339901 70.599800 95 94 92
56.385597 -1.339901 70.599800 95 94 92
56.327850 -1.338096 70.504715 95 94 92
56.308125 -1.337196 70.457275 95 95 91
56.326305 -1.337196 70.457275 96 95 91
56.344486 -1.337196 70.457275 96 95 91
56.362663 -1.337196 70.457275 96 95 91
56.380844 -1.337196 70.457275 97 96 92
56.399025 -1.337196 70.457275 97 96 92
56.417206 -1.337196 70.457275 97 96 92
56.435387 -1.337196 70.457275 96 96 93
56.453568 -1.337196 70.457275 96 96 93
56.471748 -1.337196 70.457275 96 96 93
56.489929 -1.337196 70.457275 96 96 92
56.508110 -1.337196 70.457275 96 97 90
56.526291 -1.337196 70.457275 96 97 90
56.544472 -1.337196 70.457275 96 97 90
56.562653 -1.337196 70.457275 96 97 90
56.580830 -1.337196 70.457275 96 97 90
56.599010 -1.337196 70.457275 96 97 90
56.617191 -1.337196 70.457275 96 97 90
56.635372 -1.337196 70.457275 96 96 89
56.615456 -1.336296 70.409889 96 96 89
56.671734 -1.337196 70.457275 96 97 90
56.689915 -1.337196 70.457275 97 97 92
56.708096 -1.337196 70.457275 97 96 94
56.688126 -1.336296 70.409889 97 96 94
56.706295 -1.336296 70.409889 97 96 94
56.686344 -1.335398 70.362572 97 96 95
56.704498 -1.335398 70.362572 97 96 96
56.722656 -1.335398 70.362572 97 96 96
56.740810 -1.335398 70.362572 98 96 95
56.758968 -1.335398 70.362572 99 95 94
56.777122 -1.335398 70.362572 99 95 94
57.340702 -1.321192 69.614037 181 177 167
57.358665 -1.321192 69.614037 182 177 168
57.376629 -1.321192 69.614037 182 178 168
57.394592 -1.321192 69.614037 182 178 168
57.285133 -1.291985 68.075104 99 98 94
57.043076 -1.286131 67.766670 99 98 94
56.986794 -1.284468 67.679062 99 98 94
57.004257 -1.284468 67.679062 99 98 94
57.021721 -1.284468 67.679062 98 98 94
57.039185 -1.284468 67.679062 98 98 94
56.982979 -1.282810 67.591675 99 99 95
57.000420 -1.282810 67.591675 100 100 96
56.981075 -1.281982 67.548065 100 100 96
56.925053 -1.280330 67.461021 100 100 96
56.942463 -1.280330 67.461021 100 100 96
56.959869 -1.280330 67.461021 100 100 96
57.238388 -1.280330 67.461021 178 173 166
57.255795 -1.280330 67.461021 178 173 166
57.290607 -1.280330 67.461021 181 175 168
57.308018 -1.280330 67.461021 183 175 169
57.325424 -1.280330 67.461021 182 175 169
57.305908 -1.279506 67.417580 181 174 168
57.323303 -1.279506 67.417580 180 174 168
57.377647 -1.280330 67.461021 179 174 168
70.209755 -1.914118 102.245613 0 0 0
51.296978 -1.342504 71.711990 171 168 160
51.315483 -1.342504 71.711990 171 168 160
51.333988 -1.342504 71.711990 171 168 160
51.352493 -1.342504 71.711990 171 167 159
51.370995 -1.342504 71.711990 171 166 159
51.459995 -1.344346 71.810364 171 166 159
51.534431 -1.334279 71.272636 89 89 89
51.517750 -1.333372 71.224152 89 89 89
51.571213 -1.334279 71.272636 89 89 89
52.087334 -1.346193 71.909004 90 89 91
52.105888 -1.346193 71.909004 89 88 90
52.124443 -1.346193 71.909004 89 88 88
52.533688 -1.345269 71.859650 92 88 84
52.336704 -1.339751 71.564941 92 88 84
52.248032 -1.337010 71.418488 92 88 84
52.302135 -1.337922 71.467239 91 88 85
52.249249 -1.336098 71.369804 92 88 85
52.232059 -1.335188 71.321190 92 89 85
52.214893 -1.334279 71.272636 92 89 87
52.197750 -1.333372 71.224152 93 89 88
52.216129 -1.333372 71.224152 93 89 88
52.270065 -1.334279 71.272636 92 88 88
52.252888 -1.333372 71.224152 92 88 89
52.306847 -1.334279 71.272636 92 88 89
52.611755 -1.341586 71.662910 91 88 89
52.810982 -1.346193 71.909004 90 88 88
52.829540 -1.346193 71.909004 90 88 88
52.848095 -1.346193 71.909004 90 88 89
52.866650 -1.346193 71.909004 87 85 85
52.885204 -1.346193 71.909004 85 83 83
54.090023 -1.317242 70.362572 95 94 90
54.071838 -1.316357 70.315315 95 94 91
54.017429 -1.314592 70.221001 95 94 91
54.035549 -1.314592 70.221001 96 95 92
54.751373 -1.331560 71.127380 97 95 91
55.626919 -1.327052 70.886597 180 175 170
55.569965 -1.325258 70.790741 179 174 169
55.438297 -1.321683 70.599800 179 174 168
55.270168 -1.317242 70.362572 178 173 166
55.288322 -1.317242 70.362572 179 174 167
55.306480 -1.317242 70.362572 179 174 167
55.324635 -1.317242 70.362572 178 173 166
55.342793 -1.317242 70.362572 178 173 166
55.360947 -1.317242 70.362572 178 173 166
55.379105 -1.317242 70.362572 178 173 165
55.360058 -1.316357 70.315315 178 173 164
55.378201 -1.316357 70.315315 178 173 164
55.433575 -1.317242 70.362572 178 173 164
55.451729 -1.317242 70.362572 178 174 163
55.469887 -1.317242 70.362572 178 174 162
55.488041 -1.317242 70.362572 179 175 163
55.506199 -1.317242 70.362572 181 177 166
55.524353 -1.317242 70.362572 183 179 171
56.393555 -1.326154 70.838638 95 94 90
56.335602 -1.324362 70.742912 95 95 91
56.315807 -1.323468 70.695145 95 95 91
56.334049 -1.323468 70.695145 95 95 91
56.314266 -1.322575 70.647438 95 95 91
56.256577 -1.320793 70.552231 95 95 91
56.236885 -1.319903 70.504715 95 95 91
56.179417 -1.318128 70.409889 96 95 91
56.197582 -1.318128 70.409889 95 95 91
56.215752 -1.318128 70.409889 94 94 91
56.196129 -1.317242 70.362572 95 95 92
56.252087 -1.318128 70.409889 96 95 92
56.270256 -1.318128 70.409889 96 95 93
56.288425 -1.318128 70.409889 96 95 93
56.306595 -1.318128 70.409889 96 95 93
56.324760 -1.318128 70.409889 97 96 93
56.342930 -1.318128 70.409889 97 96 92
56.323219 -1.317242 70.362572 97 96 92
56.341377 -1.317242 70.362572 97 96 92
56.397434 -1.318128 70.409889 97 96 93
56.453568 -1.319015 70.457275 97 96 93
56.471748 -1.319015 70.457275 97 96 93
56.489929 -1.319015 70.457275 96 96 92
56.508110 -1.319015 70.457275 96 96 91
56.526291 -1.319015 70.457275 96 96 91
56.544472 -1.319015 70.457275 97 96 91
56.524612 -1.318128 70.409889 97 96 91
56.580830 -1.319015 70.457275 97 96 91
56.599010 -1.319015 70.457275 97 96 91
56.617191 -1.319015 70.457275 96 96 91
56.635372 -1.319015 70.457275 96 96 90
56.615456 -1.318128 70.409889 96 96 90
56.671734 -1.319015 70.457275 96 96 91
56.689915 -1.319015 70.457275 96 96 92
56.708096 -1.319015 70.457275 97 96 93
56.688126 -1.318128 70.409889 96 95 92
56.706295 -1.318128 70.409889 96 95 92
56.686344 -1.317242 70.362572 96 95 92
56.704498 -1.317242 70.362572 96 95 93
56.722656 -1.317242 70.362572 96 95 92
56.740810 -1.317242 70.362572 97 95 92
56.758968 -1.317242 70.362572 98 94 92
57.322739 -1.303229 69.614037 181 177 165
57.340702 -1.303229 69.614037 180 176 165
57.358665 -1.303229 69.614037 181 177 166
57.376629 -1.303229 69.614037 182 178 166
57.394592 -1.303229 69.614037 182 178 167
57.247913 -1.273591 68.030869 99 98 93
57.043076 -1.268645 67.766670 99 98 94
56.986794 -1.267005 67.679062 99 98 94
57.004257 -1.267005 67.679062 99 98 94
57.021721 -1.267005 67.679062 99 98 94
57.039185 -1.267005 67.679062 99 98 94
56.982979 -1.265369 67.591675 99 98 94
56.963646 -1.264552 67.548065 100 99 95
56.981075 -1.264552 67.548065 100 100 96
56.925053 -1.262923 67.461021 101 100 96
56.942463 -1.262923 67.461021 101 100 96
56.959869 -1.262923 67.461021 101 100 96
56.977276 -1.262923 67.461021 102 101 97
57.186165 -1.262923 67.461021 101 206 94
57.203571 -1.262923 67.461021 147 188 137
57.220978 -1.262923 67.461021 167 179 156
57.238388 -1.262923 67.461021 177 174 165
57.255795 -1.262923 67.461021 178 173 166
57.273201 -1.262923 67.461021 178 173 166
57.290607 -1.262923 67.461021 179 174 167
57.308018 -1.262923 67.461021 180 174 167
57.325424 -1.262923 67.461021 180 175 168
57.342831 -1.262923 67.461021 180 175 168
57.360237 -1.262923 67.461021 179 174 169
57.377647 -1.262923 67.461021 179 174 169
70.209755 -1.887735 102.245613 0 0 0
51.296978 -1.324000 71.711990 170 167 159
51.315483 -1.324000 71.711990 170 167 159
51.333988 -1.324000 71.711990 170 167 159
51.352493 -1.324000 71.711990 171 167 157
51.441463 -1.325816 71.810364 171 167 156
51.495312 -1.326726 71.859650 171 167 156
51.534431 -1.315888 71.272636 89 88 88
51.517750 -1.314993 71.224152 89 88 88
51.571213 -1.315888 71.272636 90 89 89
51.943199 -1.324908 71.761139 90 89 90
52.068779 -1.327637 71.909004 90 89 91
52.087334 -1.327637 71.909004 89 88 90
52.070126 -1.326726 71.859650 89 88 89
52.088669 -1.326726 71.859650 89 88 88
52.107212 -1.326726 71.859650 90 89 89
52.515144 -1.326726 71.859650 92 89 84
52.497654 -1.325816 71.810364 92 89 84
52.408348 -1.323094 71.662910 92 90 84
52.355171 -1.321285 71.564941 92 89 84
52.373634 -1.321285 71.564941 91 89 83
52.356316 -1.320383 71.516060 92 89 84
52.303318 -1.318581 71.418488 92 90 85
52.250462 -1.316785 71.321190 93 90 87
52.233284 -1.315888 71.272636 93 90 87
52.251675 -1.315888 71.272636 93 90 87
52.270065 -1.315888 71.272636 92 89 88
52.288456 -1.315888 71.272636 91 87 88
52.342480 -1.316785 71.321190 91 88 88
52.539833 -1.321285 71.564941 91 88 89
52.774738 -1.326726 71.859650 90 88 88
52.829540 -1.327637 71.909004 89 88 88
52.848095 -1.327637 71.909004 90 89 89
52.866650 -1.327637 71.909004 90 88 88
52.885204 -1.327637 71.909004 89 87 87
54.071865 -1.299086 70.362572 95 94 90
54.017418 -1.297342 70.268127 95 94 90
53.999310 -1.296472 70.221001 95 94 90
53.981224 -1.295603 70.173935 95 94 90
53.963161 -1.294736 70.126930 96 95 91
53.981258 -1.294736 70.126930 97 95 91
54.180801 -1.299086 70.362572 99 96 91
55.626919 -1.308761 70.886597 179 174 169
55.569965 -1.306991 70.790741 179 174 169
55.438297 -1.303466 70.599800 179 174 168
55.270168 -1.299086 70.362572 179 174 167
55.288322 -1.299086 70.362572 178 173 166
55.306480 -1.299086 70.362572 178 173 166
55.324635 -1.299086 70.362572 178 173 166
55.342793 -1.299086 70.362572 177 172 165
55.360947 -1.299086 70.362572 178 173 166
55.379105 -1.299086 70.362572 178 173 165
55.360058 -1.298214 70.315315 178 174 162
55.378201 -1.298214 70.315315 178 173 162
55.433575 -1.299086 70.362572 177 173 162
55.451729 -1.299086 70.362572 178 174 162
55.469887 -1.299086 70.362572 178 174 162
55.488041 -1.299086 70.362572 177 173 161
55.506199 -1.299086 70.362572 177 173 162
55.524353 -1.299086 70.362572 179 175 163
55.542511 -1.299086 70.362572 176 171 160
56.335602 -1.306108 70.742912 96 95 91
56.315807 -1.305226 70.695145 96 95 91
56.334049 -1.305226 70.695145 96 95 91
56.314266 -1.304346 70.647438 96 95 91
56.218693 -1.301710 70.504715 95 94 90
56.199039 -1.300835 70.457275 96 95 91
56.179417 -1.299960 70.409889 97 96 92
56.197582 -1.299960 70.409889 96 95 91
56.177971 -1.299086 70.362572 95 94 90
56.196129 -1.299086 70.362572 96 95 91
56.252087 -1.299960 70.409889 97 96 93
56.270256 -1.299960 70.409889 97 96 94
56.288425 -1.299960 70.409889 97 96 95
56.306595 -1.299960 70.409889 97 96 96
56.286907 -1.299086 70.362572 97 96 94
56.305065 -1.299086 70.362572 97 96 93
56.323219 -1.299086 70.362572 97 96 93
56.341377 -1.299086 70.362572 97 96 93
56.359531 -1.299086 70.362572 97 96 93
56.415604 -1.299960 70.409889 97 96 93
56.433773 -1.299960 70.409889 97 96 93
56.451939 -1.299960 70.409889 97 96 93
56.470108 -1.299960 70.409889 96 95 92
56.488277 -1.299960 70.409889 96 96 93
56.506443 -1.299960 70.409889 97 96 93
56.524612 -1.299960 70.409889 97 96 93
56.542782 -1.299960 70.409889 97 96 92
56.599010 -1.300835 70.457275 97 96 92
56.617191 -1.300835 70.457275 97 96 92
56.597286 -1.299960 70.409889 97 95 92
56.615456 -1.299960 70.409889 97 95 91
56.633621 -1.299960 70.409889 97 95 91
56.651791 -1.299960 70.409889 97 95 92
56.669960 -1.299960 70.409889 98 96 92
56.688126 -1.299960 70.409889 97 95 91
56.706295 -1.299960 70.409889 96 94 91
56.686344 -1.299086 70.362572 97 95 91
56.704498 -1.299086 70.362572 97 95 91
56.722656 -1.299086 70.362572 96 94 90
56.740810 -1.299086 70.362572 96 94 90
57.322739 -1.285266 69.614037 180 175 168
57.340702 -1.285266 69.614037 180 175 167
57.358665 -1.285266 69.614037 180 175 168
57.376629 -1.285266 69.614037 180 175 168
57.394592 -1.285266 69.614037 180 175 168
57.247913 -1.256037 68.030869 98 99 93
57.043076 -1.251159 67.766670 99 99 95
56.986794 -1.249541 67.679062 100 99 95
56.967434 -1.248734 67.635338 100 99 95
57.021721 -1.249541 67.679062 100 99 95
57.002338 -1.248734 67.635338 99 99 95
56.982979 -1.247928 67.591675 100 99 95
56.963646 -1.247123 67.548065 100 99 95
56.944336 -1.246319 67.504517 100 99 96
56.925053 -1.245516 67.461021 98 103 94
56.942463 -1.245516 67.461021 95 108 92
56.959869 -1.245516 67.461021 85 126 81
56.977276 -1.245516 67.461021 69 151 65
56.994682 -1.245516 67.461021 58 164 56
57.012089 -1.245516 67.461021 49 173 47
57.029499 -1.245516 67.461021 39 190 37
57.168758 -1.245516 67.461021 51 228 48
57.186165 -1.245516 67.461021 58 227 54
57.203571 -1.245516 67.461021 73 222 68
57.220978 -1.245516 67.461021 87 216 81
57.238388 -1.245516 67.461021 102 209 95
57.255795 -1.245516 67.461021 130 198 121
57.273201 -1.245516 67.461021 166 183 154
57.290607 -1.245516 67.461021 175 180 163
57.308018 -1.245516 67.461021 184 177 170
57.325424 -1.245516 67.461021 182 175 169
57.342831 -1.245516 67.461021 181 174 167
57.360237 -1.245516 67.461021 180 174 168
57.377647 -1.245516 67.461021 180 174 168
70.209755 -1.861351 102.245613 0 0 0
51.296978 -1.305496 71.711990 171 168 161
51.315483 -1.305496 71.711990 170 167 160
51.369171 -1.306391 71.761139 170 167 160
51.422935 -1.307287 71.810364 171 167 159
51.476768 -1.308184 71.859650 171 167 158
51.566097 -1.309982 71.958427 171 167 158
51.586273 -1.299266 71.369804 90 87 88
51.569534 -1.298381 71.321190 89 88 88
51.552822 -1.297498 71.272636 89 88 88
51.606342 -1.298381 71.321190 89 88 88
51.907619 -1.305496 71.711990 90 89 89
51.997353 -1.307287 71.810364 90 89 90
52.015884 -1.307287 71.810364 90 89 89
52.034412 -1.307287 71.810364 90 88 89
52.017265 -1.306391 71.761139 91 88 89
52.035782 -1.306391 71.761139 91 88 88
52.090004 -1.307287 71.810364 91 87 88
